# .PCD v0.7 - Point Cloud Data file format
VERSION 0.7
FIELDS x y z intensity
SIZE 4 4 4 4
TYPE F F F F
COUNT 1 1 1 1
WIDTH 1354
HEIGHT 1
VIEWPOINT 0 0 0 1 0 0 0
POINTS 1354
DATA ascii
0.29484087 0.60711128 0.32367942 0
0.2449891 0.6168775 0.38350368 0
0.2293236 0.62046576 0.40235683 0
0.20689023 0.62453038 0.42996678 0
0.18523201 0.6295312 0.45572114 0
0.14979784 0.63696039 0.49926654 0
0.14860293 0.63806695 0.50053412 0
0.14389655 0.63990569 0.50608355 0
0.34003705 0.59850758 0.27101716 0
0.33683795 0.59926391 0.27505302 0
0.31785321 0.60287011 0.29719606 0
0.28550318 0.61054808 0.33571377 0
0.24144107 0.61945659 0.38769153 0
0.23058546 0.62135214 0.4012039 0
0.20259057 0.62837011 0.43511972 0
0.19519818 0.6298427 0.44379181 0
0.36428961 0.59564829 0.24376842 0
0.35864574 0.59558624 0.24887542 0
0.35108733 0.59876305 0.25756183 0
0.34992173 0.59773898 0.25877976 0
0.34757388 0.59968585 0.26153663 0
0.33031484 0.60320234 0.28255028 0
0.3289676 0.60247529 0.28411192 0
0.31455159 0.60580999 0.30113927 0
0.31367949 0.60699916 0.30228889 0
0.30787948 0.60792041 0.30915368 0
0.2661432 0.61670917 0.35767958 0
0.26197401 0.61872363 0.36309677 0
0.23605263 0.62243414 0.3943471 0
0.23502751 0.62344706 0.39581567 0
0.23170914 0.62441969 0.3998597 0
0.16971046 0.63705617 0.47444797 0
0.14460641 0.64291346 0.50454551 0
0.14251664 0.64292699 0.50724411 0
0.3424319 0.60219646 0.26781499 0
0.34040642 0.60206628 0.27042085 0
0.30876178 0.60889691 0.30751592 0
0.26750189 0.61956853 0.35628736 0
0.25155884 0.62197781 0.37537277 0
0.24214698 0.62467378 0.38616604 0
0.23432331 0.62625813 0.39721259 0
0.22371331 0.62766653 0.40920395 0
0.221624 0.62856066 0.4116894 0
0.16314474 0.64265341 0.48279846 0
0.35729244 0.60056359 0.24957518 0
0.35643366 0.60161251 0.25096634 0
0.34964141 0.60371804 0.25862843 0
0.20870781 0.63409001 0.42718935 0
0.19978161 0.63631874 0.43779507 0
0.19406006 0.63705397 0.44505048 0
0.13699049 0.65007716 0.51390725 0
0.1149787 0.65519899 0.54001135 0
0.11384863 0.65420455 0.54117775 0
0.33306247 0.60873556 0.27831066 0
0.31810451 0.61293292 0.29618937 0
0.30912736 0.61481506 0.30712143 0
0.26424581 0.62480319 0.36025381 0
0.25694409 0.62471855 0.36817318 0
0.23280525 0.63129663 0.39800861 0
0.22681086 0.63296115 0.40455687 0
0.21810895 0.63379365 0.41565543 0
0.21296135 0.6347385 0.42162091 0
0.1965604 0.63898337 0.44219497 0
0.14129794 0.65213239 0.50854325 0
0.13635282 0.65218937 0.51371866 0
0.36214316 0.60468221 0.2441251 0
0.22464626 0.63483357 0.40744954 0
0.22108907 0.6346485 0.41138235 0
0.21196654 0.63781476 0.42317948 0
0.14650328 0.65310591 0.50160521 0
0.1378607 0.65513706 0.51244742 0
0.11716443 0.65894914 0.5366897 0
0.11621796 0.657875 0.53804493 0
0.34525585 0.61129391 0.26266167 0
0.29912949 0.62065071 0.31834495 0
0.27305856 0.62721264 0.34898919 0
0.27327982 0.62517703 0.34901437 0
0.27198783 0.62609756 0.35042259 0
0.2720615 0.62608522 0.35035631 0
0.26152265 0.62981391 0.36265951 0
0.25816947 0.63045794 0.36657953 0
0.23700494 0.63337213 0.39237699 0
0.23313932 0.63443506 0.39646524 0
0.22568524 0.63589627 0.40616894 0
0.21683882 0.63845557 0.41722837 0
0.19612516 0.64304769 0.4421677 0
0.3623471 0.60870743 0.24391544 0
0.2877157 0.62501526 0.33177623 0
0.23242724 0.6384657 0.39660105 0
0.17237343 0.64998674 0.47039646 0
0.3381905 0.61620706 0.27172211 0
0.30715817 0.6229499 0.30893752 0
0.29474461 0.6252324 0.32352486 0
0.29563105 0.6263625 0.32254142 0
0.29331467 0.62627149 0.32504457 0
0.28631389 0.62805355 0.33312666 0
0.25088716 0.63541341 0.37437668 0
0.25117174 0.63568234 0.37456688 0
0.22420412 0.64082831 0.40717995 0
0.21416561 0.64482188 0.41946414 0
0.17959666 0.65115935 0.46180794 0
0.17141232 0.65271372 0.47139981 0
0.33025667 0.62102139 0.28062585 0
0.32910177 0.6203196 0.28194299 0
0.32318509 0.62234885 0.28929374 0
0.31453574 0.62372047 0.30001861 0
0.29684147 0.62733608 0.32125685 0
0.23404229 0.64140028 0.39518237 0
0.18476447 0.65168613 0.4550122 0
0.16427997 0.65686119 0.47955644 0
0.12699993 0.66557342 0.52405816 0
0.10031457 0.67080671 0.55663759 0
0.32914981 0.62354153 0.28180358 0
0.32425612 0.62354147 0.28765538 0
0.25307643 0.64050907 0.37212458 0
0.19282609 0.65292704 0.44522876 0
0.18925887 0.65382069 0.44905114 0
0.18481717 0.6561166 0.45499581 0
0.092446581 0.67606354 0.5653789 0
0.31675914 0.62763011 0.29696795 0
0.31585151 0.62867397 0.29837549 0
0.31217182 0.62778288 0.30203509 0
0.3010684 0.63026053 0.31516418 0
0.28978866 0.63300341 0.32900137 0
0.28842506 0.63407093 0.33028239 0
0.23858988 0.64411688 0.39014935 0
0.2030879 0.65342617 0.43276241 0
0.18722162 0.6566143 0.45257542 0
0.12790972 0.67065388 0.52271301 0
0.28193077 0.63857794 0.3379769 0
0.23733424 0.64807874 0.38980311 0
0.22653925 0.65079343 0.4037267 0
0.14496346 0.6695829 0.50289345 0
0.12111339 0.67476475 0.53100306 0
0.11179423 0.67659938 0.5417257 0
0.34671947 0.62579304 0.2604214 0
0.33448598 0.62853694 0.27545437 0
0.31368244 0.63355517 0.30001828 0
0.27723786 0.6409232 0.34294143 0
0.26866749 0.64288855 0.35359204 0
0.2212171 0.65337282 0.41120452 0
0.2144652 0.65446347 0.41826099 0
0.100787 0.68187833 0.55514884 0
0.34023064 0.62953484 0.26809978 0
0.33183408 0.63074201 0.27830207 0
0.32400477 0.63184118 0.2877841 0
0.26361325 0.6452502 0.35869655 0
0.16633877 0.66898113 0.47683799 0
0.16654056 0.6690014 0.47665757 0
0.16477051 0.66794431 0.4781045 0
0.15309662 0.67064536 0.49269557 0
0.13142359 0.67544127 0.51827842 0
0.12599987 0.67708611 0.52490342 0
0.11618747 0.6785394 0.53637546 0
0.35250425 0.62889624 0.25349134 0
0.33877945 0.6304419 0.2694611 0
0.33200371 0.63272709 0.27820814 0
0.29480767 0.64155674 0.321666 0
0.24085516 0.65240413 0.38623977 0
0.23402205 0.6553387 0.39407358 0
0.18032685 0.66626275 0.45927402 0
0.16835117 0.6710515 0.47380376 0
0.15651098 0.67219317 0.48896992 0
0.13123587 0.67745781 0.51814818 0
0.35623983 0.6293931 0.24926381 0
0.33238328 0.63419914 0.27643669 0
0.33140424 0.63521445 0.27775401 0
0.31441218 0.63870126 0.2985644 0
0.31111789 0.63958627 0.30253127 0
0.28586078 0.6452027 0.3325485 0
0.26233461 0.64975041 0.35969335 0
0.26121485 0.65074724 0.36104274 0
0.24600765 0.65550584 0.37959352 0
0.2341051 0.6574626 0.39401555 0
0.18065706 0.66843212 0.45911801 0
0.1625848 0.67415541 0.48059914 0
0.3572436 0.63047117 0.24796624 0
0.33253464 0.63614696 0.27641833 0
0.31196356 0.64072114 0.300944 0
0.29467878 0.64550531 0.32174119 0
0.27466524 0.65100592 0.34478867 0
0.27166659 0.65138787 0.3490366 0
0.25566584 0.65393096 0.36814383 0
0.25245315 0.65635872 0.37255743 0
0.2276067 0.66092509 0.40132424 0
0.14329171 0.68119115 0.50257051 0
0.36125547 0.63245195 0.24227485 0
0.28250524 0.65012634 0.33448896 0
0.27379206 0.65169472 0.3460941 0
0.25326279 0.65646106 0.37077725 0
0.24338327 0.65958083 0.38171142 0
0.24165785 0.65951043 0.38422084 0
0.22666556 0.66405666 0.40271878 0
0.22065169 0.66577011 0.41021973 0
0.19580597 0.67147255 0.44071352 0
0.16883826 0.67709613 0.47328907 0
0.35310265 0.63753051 0.25192094 0
0.27898702 0.65251541 0.33943591 0
0.27577436 0.65318358 0.34347379 0
0.24449903 0.66070515 0.3804507 0
0.23197132 0.66505682 0.39604688 0
0.19275872 0.67360336 0.4439235 0
0.15686432 0.68118334 0.48708391 0
0.35414836 0.63849866 0.25051436 0
0.33816123 0.64301866 0.26967177 0
0.31715393 0.64634776 0.29459643 0
0.28631288 0.65493256 0.33101737 0
0.27038479 0.65820718 0.35012373 0
0.25264889 0.66224217 0.37149832 0
0.23168144 0.66701752 0.39615801 0
0.21765782 0.67005152 0.41378158 0
0.20637067 0.672414 0.42733717 0
0.17087111 0.68111581 0.46991822 0
0.13422596 0.68935841 0.51377761 0
0.35523424 0.64144379 0.24923882 0
0.30005646 0.65212387 0.31460199 0
0.27032274 0.65918446 0.3500818 0
0.24706763 0.66450882 0.37766114 0
0.24414963 0.66576302 0.38153854 0
0.2030406 0.6756382 0.43131924 0
0.16575208 0.6851759 0.47621864 0
0.16347352 0.68533087 0.47843468 0
0.13990191 0.69008899 0.50686651 0
0.14086336 0.68898529 0.50552142 0
0.12513824 0.69315785 0.52269691 0
0.10875049 0.69685221 0.54375243 0
0.10361738 0.69918317 0.54901069 0
0.33830062 0.64689249 0.26955718 0
0.32662907 0.64873385 0.28304407 0
0.30336389 0.65505487 0.31042793 0
0.30078313 0.65498656 0.31304944 0
0.3019079 0.65595007 0.31197348 0
0.2787275 0.66047591 0.33921656 0
0.24509083 0.66876078 0.37987316 0
0.22275746 0.67347473 0.40730497 0
0.20792727 0.67748851 0.42496505 0
0.20203018 0.67895824 0.43070695 0
0.20291819 0.67739153 0.43114775 0
0.10156129 0.7008642 0.55163789 0
0.10059673 0.7019909 0.55297965 0
0.099364758 0.70071882 0.55432397 0
0.3562817 0.64446074 0.24780257 0
0.35414082 0.64455181 0.25039557 0
0.35541928 0.64535856 0.24927051 0
0.35203764 0.64660591 0.2528747 0
0.32275134 0.65291429 0.2876845 0
0.26034015 0.66581196 0.36145619 0
0.25435567 0.66849548 0.36816064 0
0.24260423 0.6706264 0.3826057 0
0.22364056 0.67638373 0.40603101 0
0.22264144 0.67529273 0.40742368 0
0.15726754 0.69037873 0.48571429 0
0.35026449 0.6475746 0.25463337 0
0.30195886 0.65993804 0.31174114 0
0.28922367 0.66183722 0.32716191 0
0.27063996 0.66713345 0.34864402 0
0.25756952 0.67004323 0.36402315 0
0.2260244 0.67646921 0.40343451 0
0.20986184 0.6796605 0.42238522 0
0.14363597 0.69541359 0.5021553 0
0.13931221 0.69603813 0.50662142 0
0.12455384 0.70040709 0.52427298 0
0.35609233 0.6486569 0.24804834 0
0.34547466 0.65238744 0.26004595 0
0.32634619 0.65676916 0.28315705 0
0.30533421 0.6601932 0.30773765 0
0.28238818 0.66560459 0.33524615 0
0.2574499 0.6720686 0.36391851 0
0.22355177 0.67882907 0.4056583 0
0.21892399 0.68067557 0.41114318 0
0.20751071 0.68380809 0.42527473 0
0.19235921 0.68759507 0.44348937 0
0.1708768 0.69094825 0.46891865 0
0.16617638 0.69241196 0.47376531 0
0.33735737 0.65642512 0.26959887 0
0.32048744 0.65910679 0.28964877 0
0.3144758 0.66029835 0.29716271 0
0.2893765 0.66668427 0.32591796 0
0.25987151 0.67405546 0.36133084 0
0.21152602 0.68553656 0.41973418 0
0.12675054 0.70466101 0.51995534 0
0.36160862 0.65151781 0.24063559 0
0.36053765 0.65239209 0.24216206 0
0.35586363 0.65283507 0.24772446 0
0.35140407 0.65460014 0.25334534 0
0.34546968 0.6564936 0.25993863 0
0.31703871 0.66248739 0.29416487 0
0.26200414 0.67584825 0.35872111 0
0.23796971 0.68121213 0.38760984 0
0.18780673 0.69341773 0.4481329 0
0.1764465 0.69587052 0.46209988 0
0.17640355 0.69576609 0.46217239 0
0.34204096 0.65762299 0.26374948 0
0.30528322 0.66665101 0.30761641 0
0.2913456 0.67067605 0.32388693 0
0.25046629 0.68028247 0.37253234 0
0.20074943 0.69221598 0.43281582 0
0.1949205 0.69282764 0.43972835 0
0.18442325 0.69636512 0.45260352 0
0.180521 0.69546616 0.45681664 0
0.17952697 0.69654417 0.45820031 0
0.16093361 0.7019031 0.48244399 0
0.31645423 0.66644484 0.2946507 0
0.24147771 0.68461466 0.38398215 0
0.22394781 0.68880475 0.40369767 0
0.20934048 0.69209218 0.42226985 0
0.14936489 0.70935917 0.52050656 0
0.32687214 0.66745883 0.2812174 0
0.32253933 0.66676062 0.28719795 0
0.20361212 0.69664383 0.43031639 0
0.16926365 0.70361239 0.47055137 0
0.3492229 0.66303933 0.25513017 0
0.33822283 0.66522104 0.26803407 0
0.31138653 0.67329323 0.29926947 0
0.31034547 0.67222524 0.30086419 0
0.25962546 0.6848852 0.3610163 0
0.35701051 0.66415209 0.24556682 0
0.24818774 0.68853593 0.37491396 0
0.20799462 0.69925511 0.42352438 0
0.17911533 0.70862603 0.49100015 0
0.36032131 0.66513258 0.24135429 0
0.34168851 0.67051882 0.26390478 0
0.32477888 0.67352265 0.28381222 0
0.3141948 0.67542672 0.29644278 0
0.31195521 0.67746794 0.29900783 0
0.30621007 0.67794228 0.3055844 0
0.29800844 0.67918313 0.3153201 0
0.25649738 0.68998313 0.36451453 0
0.25036341 0.69216961 0.37146467 0
0.35020274 0.67005432 0.25387323 0
0.32144901 0.67677587 0.28719595 0
0.3399587 0.67411083 0.26548085 0
0.33576843 0.67628491 0.27087831 0
0.31063282 0.68042898 0.30020073 0
0.30295604 0.68398374 0.30919352 0
0.30060887 0.68436754 0.31153238 0
0.2951892 0.68510342 0.3186 0
0.24403378 0.69725919 0.38181278 0
0.36066252 0.670735 0.23943543 0
0.34082854 0.67706466 0.26404041 0
0.32541198 0.68031478 0.28204891 0
0.32655495 0.67872936 0.28082323 0
0.34655964 0.67616534 0.25737485 0
0.32589495 0.68196726 0.28217497 0
0.32761243 0.68426216 0.27969396 0
0.29551202 0.69103253 0.31874663 0
0.33478865 0.68459767 0.27095333 0
0.31816182 0.68761742 0.29199493 0
0.35679659 0.68004769 0.24213539 0
0.34128389 0.68534005 0.2637732 0
0.32024074 0.69045699 0.29095861 0
0.32158387 0.69078296 0.28964069 0
0.129738 0.68757766 0.024688354 0
0.36104164 0.68233448 0.23841225 0
0.34670466 0.6866734 0.25609866 0
0.30641386 0.69448268 0.30339712 0
0.35136849 0.68606871 0.25083622 0
0.34321469 0.68887115 0.26057258 0
0.34380573 0.69003683 0.25858241 0
0.34661332 0.69434363 0.25594166 0
0.3330867 0.70350271 0.30212802 0
0.37788379 0.7036972 0.22441557 0
0.055227086 -0.40716359 0.30865017 0
0.05139672 -0.40039125 0.31888384 0
0.058770128 -0.39197627 0.31524026 0
0.076929688 -0.38388535 0.30858141 0
0.083561935 -0.38309318 0.29488137 0
0.080930591 -0.38275111 0.30529705 0
0.080031604 -0.36810842 0.32388905 0
0.075807713 -0.36309475 0.33115417 0
0.083420567 -0.35919026 0.3242439 0
0.076708749 -0.35644466 0.33151105 0
0.073984385 -0.35441282 0.33333609 0
0.082667939 -0.34830943 0.32689005 0
0.07980077 -0.34971893 0.32939377 0
0.08001703 -0.33679894 0.32648811 0
0.080594912 -0.32949135 0.32383811 0
0.076684304 -0.32681036 0.32664087 0
0.083947182 -0.32337746 0.32229835 0
0.086045474 -0.31864542 0.32222214 0
0.088468745 -0.30341798 0.32401207 0
0.088228412 -0.29376155 0.32001778 0
0.083945945 -0.28593546 0.31933209 0
0.082337588 -0.28000325 0.31788409 0
0.099841677 -0.2707898 0.29726011 0
0.10114861 -0.26636177 0.30455181 0
0.11784524 -0.25964519 0.28237835 0
0.074959621 -0.26018819 0.35314772 0
0.11664106 -0.25634855 0.29546756 0
0.087686598 -0.25712413 0.33780372 0
0.078188963 -0.25799754 0.35133192 0
0.095135368 -0.25484851 0.33109328 0
0.086799897 -0.25417531 0.34283546 0
0.079852164 -0.25602511 0.35126817 0
0.12482324 -0.25114101 0.28651866 0
0.10717949 -0.25065756 0.32208791 0
0.080625802 -0.24990255 0.36165076 0
0.057539091 -0.25104347 0.3888177 0
0.056611277 -0.2496362 0.39288139 0
0.13029741 -0.24693525 0.27874768 0
0.11221283 -0.24518487 0.32218263 0
0.086417966 -0.24639371 0.35659316 0
0.13544995 -0.24374925 0.266913 0
0.12604083 -0.24233131 0.30527031 0
0.12097018 -0.24359533 0.31104878 0
0.11410981 -0.24326995 0.32239214 0
0.078088328 -0.2382268 0.38129696 0
0.036553353 -0.23953119 0.42055541 0
0.11621394 -0.23099691 0.33372691 0
0.086205944 -0.23208864 0.37712312 0
0.12343676 -0.22939007 0.32846054 0
0.12129394 -0.22910543 0.33076134 0
0.085028358 -0.2294821 0.38254553 0
0.058330394 -0.22942136 0.40842611 0
0.057115622 -0.22983523 0.41029131 0
0.05205296 -0.23043865 0.41437393 0
0.1362994 -0.22836936 0.30277652 0
0.10452457 -0.22712554 0.34938461 0
0.057880968 -0.22643821 0.41178268 0
0.13156694 -0.22389059 0.32144579 0
0.10816854 -0.2245339 0.34743673 0
0.089131229 -0.22400941 0.38225374 0
0.061670639 -0.22384669 0.40913981 0
0.041623607 -0.22299096 0.4246805 0
0.036489978 -0.22318423 0.43541738 0
0.089830548 -0.21879494 0.38597971 0
0.084797047 -0.21894084 0.39200005 0
0.11505102 -0.21807025 0.34455562 0
0.11191775 -0.21875447 0.34764957 0
0.10328838 -0.21793723 0.3586798 0
0.090371028 -0.21558955 0.3872706 0
0.06340865 -0.2168009 0.41137931 0
0.044985615 -0.21318516 0.4248412 0
0.14557692 -0.20805733 0.30318657 0
0.13014311 -0.20755987 0.33578008 0
0.10215892 -0.20760754 0.37003237 0
0.12858392 -0.20479918 0.33845779 0
0.12329724 -0.20591001 0.34305972 0
0.088412896 -0.20371035 0.39622098 0
0.040675372 -0.20400178 0.44522178 0
0.13250941 -0.20179546 0.3356714 0
0.086843066 -0.20146011 0.39921775 0
0.13210683 -0.20017861 0.33715928 0
0.14343807 -0.19774179 0.32087886 0
0.049222514 -0.1993846 0.4247545 0
0.15714437 -0.19932151 0.26456809 0
0.14379156 -0.19640636 0.32341653 0
0.13312286 -0.19503175 0.33806089 0
0.12586391 -0.19512878 0.34609923 0
0.0938541 -0.19564372 0.39181796 0
0.086080693 -0.19514228 0.40181461 0
0.16651046 -0.19262314 0.25523981 0
0.16203883 -0.19126645 0.26439881 0
0.073679999 -0.18946214 0.41241735 0
0.041276626 -0.18955587 0.45488033 0
0.11878466 -0.18724467 0.35808471 0
0.10395025 -0.18729332 0.37949002 0
0.16528952 -0.1873363 0.26173273 0
0.12165416 -0.18484163 0.35587859 0
0.11552046 -0.18462566 0.36211234 0
0.04421518 -0.18495061 0.45446754 0
0.15146987 -0.18622002 0.27764204 0
0.13331002 -0.18361576 0.34231043 0
0.12245175 -0.18288134 0.35590819 0
0.12598462 -0.17966466 0.35323462 0
0.1230999 -0.1808753 0.3559081 0
0.091842271 -0.17912419 0.40000811 0
0.050793201 -0.17930396 0.45114365 0
0.049291082 -0.18023416 0.45208946 0
0.16473109 -0.18216613 0.26704291 0
0.12367952 -0.17907819 0.35595092 0
0.086592101 -0.17904465 0.4051351 0
0.1693984 -0.17917496 0.26190993 0
0.16837633 -0.17814885 0.26505148 0
0.088655904 -0.17660595 0.40384349 0
0.12530518 -0.17496756 0.35643181 0
0.12056762 -0.17328894 0.3616353 0
0.087188385 -0.17159806 0.40629867 0
0.094291948 -0.16932863 0.39992535 0
0.08527986 -0.16913193 0.40876591 0
0.085387364 -0.168814 0.4092226 0
0.12503287 -0.16837697 0.35935959 0
0.1168333 -0.16806354 0.36670777 0
0.11678722 -0.16811264 0.36681166 0
0.098141365 -0.16697039 0.39600974 0
0.080052942 -0.16762085 0.41435426 0
0.17574608 -0.16815768 0.25741735 0
0.16827664 -0.16885671 0.27104738 0
0.1597884 -0.16827816 0.27673107 0
0.13686991 -0.16263053 0.3469303 0
0.1216912 -0.16421971 0.36283094 0
0.10361186 -0.16157293 0.39072624 0
0.086607262 -0.15964322 0.41023958 0
0.077626981 -0.15972292 0.41859403 0
0.1739518 -0.16078848 0.26918209 0
0.17249441 -0.16116327 0.27074429 0
0.16922361 -0.16209623 0.27367494 0
0.12931505 -0.15803808 0.35791355 0
0.090546966 -0.1579136 0.40631562 0
0.053369656 -0.15996972 0.43099043 0
0.17768526 -0.15913375 0.2645942 0
0.15072984 -0.16022906 0.28817949 0
0.12549031 -0.15775123 0.3618885 0
0.17628783 -0.15414192 0.27022648 0
0.15193602 -0.1547661 0.28611809 0
0.095275074 -0.15176894 0.4025611 0
0.093904577 -0.15270358 0.40383422 0
0.090384483 -0.15117207 0.40787396 0
0.083742693 -0.15130043 0.41382578 0
0.082211986 -0.15227291 0.41511032 0
0.12976874 -0.14947753 0.36061728 0
0.087789558 -0.15054281 0.41011447 0
0.086764254 -0.14916597 0.41123283 0
0.1801675 -0.15086205 0.26790917 0
0.1245743 -0.14765149 0.36548772 0
0.1087198 -0.14821514 0.38803622 0
0.1330727 -0.14696379 0.35694313 0
0.10327385 -0.14615247 0.3952657 0
0.055663198 -0.14437863 0.46950495 0
0.053004898 -0.14369284 0.47399741 0
0.14732243 -0.14471249 0.3336207 0
0.12171494 -0.14336132 0.36930773 0
0.082153626 -0.1430437 0.41604823 0
0.13097221 -0.14163108 0.36092854 0
0.10308152 -0.14101338 0.39663962 0
0.053419791 -0.14004906 0.47486597 0
0.13536701 -0.13999489 0.35603586 0
0.12076136 -0.14026895 0.37042186 0
0.10216672 -0.139672 0.39783576 0
0.054595537 -0.13656899 0.47666791 0
0.17998749 -0.14072403 0.27401683 0
0.11825102 -0.13664171 0.37441844 0
0.10016901 -0.13711149 0.40072647 0
0.089952908 -0.13631171 0.40976328 0
0.051609844 -0.13750884 0.43164486 0
0.15088521 -0.13749862 0.29031849 0
0.14987144 -0.13844509 0.29141957 0
0.12450017 -0.13458811 0.36833167 0
0.097128481 -0.13384904 0.4038913 0
0.14147067 -0.13371918 0.34904727 0
0.094160751 -0.13339277 0.40606502 0
0.090583511 -0.13173924 0.40978771 0
0.055661917 -0.12996189 0.47946352 0
0.12517399 -0.1303976 0.36843035 0
0.11774987 -0.13153513 0.37608463 0
0.10967483 -0.13084602 0.39081326 0
0.10739176 -0.13046202 0.39382586 0
0.18132418 -0.13229679 0.27658379 0
0.10208251 -0.12896821 0.40039 0
0.1358972 -0.12403066 0.35879269 0
0.1303231 -0.12499925 0.36495584 0
0.12600216 -0.12521446 0.36840653 0
0.059147261 -0.12025616 0.4806827 0
0.056567527 -0.12007888 0.4846575 0
0.055866159 -0.1201542 0.48525658 0
0.15296865 -0.12642804 0.29146233 0
0.13682181 -0.12050658 0.35820645 0
0.099563248 -0.12004194 0.40409541 0
0.13832062 -0.11753485 0.3569451 0
0.063330494 -0.11564688 0.47484398 0
0.056951761 -0.11403029 0.48768163 0
0.093427494 -0.11437768 0.40970632 0
0.058129393 -0.11187517 0.48775771 0
0.099870875 -0.11195461 0.4045133 0
0.18931243 -0.11465867 0.27665031 0
0.12291141 -0.11064193 0.37395641 0
0.060024224 -0.10483024 0.4893212 0
0.19044062 -0.10875846 0.27864566 0
0.18847273 -0.10941129 0.27969113 0
0.10193998 -0.10723453 0.40332031 0
0.097031161 -0.10612786 0.40818837 0
0.15256786 -0.10853574 0.29660872 0
0.13277194 -0.10404652 0.3655895 0
0.1240188 -0.10545727 0.37330994 0
0.12572095 -0.10098383 0.37208298 0
0.10795445 -0.09905 0.39773935 0
0.041350961 -0.10090443 0.43823552 0
0.19504894 -0.10072328 0.27646315 0
0.13619673 -0.099407107 0.36198211 0
0.13367406 -0.098997928 0.3642647 0
0.10916724 -0.098238721 0.39634359 0
0.092213273 -0.098691329 0.4121668 0
0.15143159 -0.099303484 0.2975041 0
0.13015288 -0.096039109 0.36797398 0
0.099709384 -0.095036522 0.40672323 0
0.18643583 -0.097175509 0.28572863 0
0.15184103 -0.097035192 0.30094171 0
0.13395613 -0.09533713 0.36438683 0
0.13046661 -0.094083168 0.36818355 0
0.1290414 -0.094866082 0.36937326 0
0.12808834 -0.093715951 0.37065578 0
0.12803239 -0.093835734 0.37071255 0
0.099666297 -0.093086138 0.40648594 0
0.15168294 -0.096148424 0.29585904 0
0.10277347 -0.091386154 0.40426454 0
0.15163457 -0.094171762 0.29558849 0
0.13088349 -0.089968339 0.36806056 0
0.10182868 -0.088524476 0.40523824 0
0.11965158 -0.087035872 0.38172022 0
0.15139431 -0.090008453 0.30125737 0
0.13335052 -0.08580029 0.36568847 0
0.12816523 -0.085833825 0.37075138 0
0.095749438 -0.084959604 0.41107103 0
0.15034381 -0.088032745 0.29833063 0
0.13366005 -0.083825789 0.36572182 0
0.12743381 -0.082869917 0.37209269 0
0.10363468 -0.083440773 0.40413767 0
0.13236415 -0.080893219 0.36712891 0
0.10756673 -0.080977976 0.40042838 0
0.10880911 -0.080286026 0.39918184 0
0.12878525 -0.079898022 0.37061217 0
0.12663859 -0.079685666 0.37335783 0
0.13739583 -0.077150255 0.36163306 0
0.10930182 -0.0763653 0.39883664 0
0.10296324 -0.076051727 0.40548059 0
0.13486229 -0.074895434 0.36474651 0
0.10859182 -0.073309101 0.40017474 0
0.10701398 -0.074152745 0.40169501 0
0.10219416 -0.073301636 0.40664357 0
0.10758984 -0.071956187 0.40167126 0
0.062956519 -0.071639352 0.42649633 0
0.10898064 -0.069351062 0.40038076 0
0.12117697 -0.069272511 0.38164413 0
0.10643898 -0.068153486 0.40442553 0
0.15084898 -0.070840746 0.30128852 0
0.15090725 -0.069809042 0.3031714 0
0.15170507 -0.070772901 0.30548888 0
0.1193671 -0.067196004 0.38452923 0
0.10417222 -0.06490647 0.40566972 0
0.15237221 -0.067614526 0.29902995 0
0.15178984 -0.068643726 0.30901718 0
0.15206063 -0.066617757 0.30898014 0
0.15174663 -0.066184446 0.30000526 0
0.1520094 -0.064603835 0.30892521 0
0.11869374 -0.060850121 0.38589117 0
0.1528523 -0.063685648 0.30370411 0
0.13766322 -0.060940009 0.36202449 0
0.15271854 -0.062373161 0.30535489 0
0.14549688 -0.058144629 0.35096627 0
0.13778538 -0.058945365 0.36201873 0
0.10647964 -0.056244269 0.40412682 0
0.10381146 -0.055875797 0.40661478 0
0.056045756 -0.052342512 0.49692607 0
0.15379918 -0.058900483 0.30933768 0
0.14320625 -0.056690261 0.35526657 0
0.13932404 -0.056126811 0.36041883 0
0.11921159 -0.05509574 0.38587469 0
0.10754652 -0.055309877 0.40303355 0
0.10655268 -0.054290805 0.40406284 0
0.069489211 -0.055424809 0.42624608 0
0.20861953 -0.055583928 0.28329951 0
0.14286944 -0.053581811 0.35635382 0
0.20999238 -0.055058923 0.28014797 0
0.10822012 -0.049400933 0.40279928 0
0.10602869 -0.049134478 0.40547457 0
0.11053256 -0.04735402 0.40007558 0
0.13950934 -0.046421021 0.36104178 0
0.12737888 -0.045212712 0.37359563 0
0.12578396 -0.045248181 0.37704593 0
0.13685809 -0.043892305 0.36381373 0
0.13827357 -0.042748496 0.3626959 0
0.10668444 -0.041300252 0.40532821 0
0.13691315 -0.041698046 0.36366105 0
0.13199186 -0.041642837 0.36847639 0
0.1274333 -0.040317427 0.37564099 0
0.053513154 -0.034259591 0.49408838 0
0.20608442 -0.039058354 0.28261095 0
0.16010267 -0.041060001 0.29745403 0
0.1347325 -0.037670016 0.3661789 0
0.11227369 -0.036145281 0.39899573 0
0.10477865 -0.035141073 0.40792686 0
0.099761277 -0.034558296 0.41236857 0
0.05835247 -0.032448076 0.48732287 0
0.20896444 -0.037758205 0.28056553 0
0.16118391 -0.039015971 0.29783499 0
0.13484189 -0.035748843 0.36614004 0
0.13036096 -0.033700943 0.37081566 0
0.10709692 -0.033214826 0.40538749 0
0.10572898 -0.034138128 0.40648142 0
0.12987727 -0.033617467 0.37128267 0
0.13391775 -0.030926552 0.36736903 0
0.13620791 -0.028244222 0.3650552 0
0.20848101 -0.02922737 0.27596861 0
0.10292994 -0.024651686 0.41009906 0
0.051138088 -0.021152036 0.49247926 0
0.14377318 -0.025224239 0.35795036 0
0.14036827 -0.024098923 0.36122307 0
0.13802895 -0.023517517 0.36356759 0
0.128454 -0.023129582 0.37439644 0
0.14392591 -0.023271972 0.3578279 0
0.11157925 -0.020529229 0.4003258 0
0.05095502 -0.017507767 0.49022409 0
0.12962258 -0.020114053 0.37297755 0
0.052690946 -0.014828956 0.48767459 0
0.13834071 -0.018023685 0.36377636 0
0.11123565 -0.01623302 0.40046534 0
0.20497967 -0.0203446 0.27586409 0
0.10131232 -0.01478779 0.41212013 0
0.10136291 -0.01462168 0.41206795 0
0.095474988 -0.014598849 0.4170154 0
0.15809834 -0.013808271 0.33787504 0
0.10401393 -0.012715003 0.41008985 0
0.096072085 -0.01053581 0.41699195 0
0.14086348 -0.011861295 0.36133096 0
0.13847578 -0.01203291 0.36386842 0
0.10236206 -0.0097882254 0.41095206 0
0.20530742 -0.013943159 0.27234697 0
0.14344391 -0.010168567 0.3587507 0
0.14738172 -0.0077070612 0.35434231 0
0.13745022 -0.0065217819 0.36471206 0
0.09793777 -0.0042057279 0.41565558 0
0.095190942 -0.0056214528 0.41809356 0
0.14605509 -0.005102925 0.35629138 0
0.13733897 -0.0045338357 0.3646318 0
0.10496553 -0.0041748863 0.40846446 0
0.038876973 -0.020638958 0.16090076 0
0.14767799 -0.0011170786 0.35439345 0
0.14594789 -0.0010500839 0.35658929 0
0.1296334 0.00023735408 0.3736957 0
0.11028166 0.00033880118 0.40165192 0
0.093090087 0.00068143476 0.42022762 0
0.14040992 0.00022326037 0.3619982 0
0.14171377 0.0010791421 0.36065546 0
0.0990678 0.0027979491 0.41480789 0
0.048143134 0.0066824257 0.48299724 0
0.1312284 0.0026984541 0.37229559 0
0.10619811 0.0053445809 0.40696609 0
0.093850434 0.0054980647 0.41947943 0
0.047183208 0.0086615877 0.48260808 0
0.14658111 0.0060776435 0.35550719 0
0.13807501 0.0061842706 0.36454967 0
0.10321282 0.0068450905 0.41104004 0
0.20437692 0.0019363509 0.26469168 0
0.17271397 0.0037885858 0.28054452 0
0.10206502 0.0097503876 0.41213849 0
0.097997002 0.010404991 0.4161467 0
0.084844857 0.0093857469 0.42730525 0
0.041656151 0.013540463 0.48798841 0
0.10168245 0.01135574 0.41213024 0
0.1525598 0.010988429 0.3493351 0
0.14800593 0.011533355 0.35453457 0
0.20415607 0.0080958847 0.2614997 0
0.11877262 0.014198399 0.38825092 0
0.15533032 0.016287936 0.34616607 0
0.15539756 0.018141761 0.34604126 0
0.10428213 0.021172941 0.40957415 0
0.098545521 0.02049318 0.41615298 0
0.082302287 0.020790566 0.42998514 0
0.14002562 0.020944882 0.3635506 0
0.13895386 0.020057842 0.36504138 0
0.13827661 0.021562863 0.36564612 0
0.1335192 0.023520611 0.37230361 0
0.099653073 0.025181886 0.41466412 0
0.092838354 0.024261978 0.42163613 0
0.17868245 0.018222038 0.26862818 0
0.13960013 0.024224682 0.36486036 0
0.13572586 0.025140915 0.36985651 0
0.092870742 0.026210666 0.42191851 0
0.15590596 0.026070293 0.34593073 0
0.14775449 0.026116969 0.3555119 0
0.11951307 0.028585223 0.39000565 0
0.098507941 0.030136645 0.41651794 0
0.14832109 0.028431848 0.35522476 0
0.13532597 0.030179644 0.37149891 0
0.098236665 0.031960092 0.41667354 0
0.089535624 0.03136706 0.42474729 0
0.081408672 0.032495406 0.43147853 0
0.039552629 0.033266529 0.47812557 0
0.12037095 0.032528475 0.39003801 0
0.12485626 0.035144161 0.38585657 0
0.034811765 0.038090307 0.48141962 0
0.18734619 0.02988237 0.26046896 0
0.13690323 0.036356751 0.37130216 0
0.12506044 0.037095636 0.38597688 0
0.10918123 0.03899128 0.40288863 0
0.14172164 0.040248282 0.36689794 0
0.11568744 0.040534809 0.39615324 0
0.10068067 0.042606682 0.41419387 0
0.13648382 0.043012604 0.37394708 0
0.13306041 0.042768586 0.3774507 0
0.11067883 0.043644395 0.40191886 0
0.095194682 0.044522975 0.42045319 0
0.036629811 0.044099588 0.4494617 0
0.19643459 0.038540199 0.24684143 0
0.1587292 0.043630883 0.34397405 0
0.1392855 0.047084548 0.37207711 0
0.14286345 0.049170479 0.36814928 0
0.123178 0.048940405 0.39055485 0
0.1210904 0.048357688 0.39254028 0
0.1174403 0.049814116 0.39644074 0
0.10099769 0.049654163 0.41534072 0
0.1962437 0.043221235 0.24335326 0
0.19071092 0.042570665 0.25086758 0
0.1259228 0.050443418 0.38818386 0
0.096586175 0.052002583 0.42036155 0
0.19507965 0.045146883 0.24325401 0
0.12251998 0.05450727 0.39269572 0
0.11228056 0.05363027 0.40238309 0
0.10123921 0.05475311 0.41652858 0
0.14211446 0.053696729 0.37026772 0
0.15984157 0.054761574 0.34665114 0
0.1217438 0.057561722 0.39400327 0
0.10269383 0.05970192 0.41649273 0
0.030920498 0.060282461 0.45306048 0
0.19616608 0.050357252 0.23834395 0
0.16650602 0.057332538 0.33748871 0
0.14103161 0.058557369 0.37290436 0
0.13450705 0.060337208 0.38101265 0
0.12134866 0.060660746 0.39536199 0
0.11987869 0.060001232 0.39654154 0
0.12173961 0.062599219 0.39526427 0
0.11733174 0.062132075 0.40029854 0
0.10245105 0.062964633 0.4178997 0
0.098585382 0.063283138 0.42157248 0
0.094875239 0.065600649 0.42518327 0
0.11971301 0.066450655 0.3991043 0
0.10680498 0.067975424 0.41468045 0
0.10275264 0.067782864 0.41874433 0
0.031234875 0.069613636 0.45675722 0
0.028117537 0.06995821 0.46844995 0
0.18848835 0.05991634 0.24101195 0
0.16062793 0.065240301 0.34952074 0
0.13471948 0.068386555 0.38317767 0
0.1319209 0.06736511 0.38622153 0
0.10748801 0.069889523 0.41490325 0
0.12558801 0.070503429 0.39346284 0
0.10692403 0.071247116 0.41639513 0
0.097273007 0.073523447 0.42473745 0
0.17807673 0.062967978 0.24625959 0
0.14588222 0.070680641 0.36964208 0
0.10353679 0.073884681 0.41994432 0
0.023352236 0.077645868 0.47026396 0
0.11448441 0.07922028 0.41084629 0
0.01747562 0.081590518 0.47343999 0
0.11938881 0.079007775 0.40523392 0
0.10734898 0.081567965 0.41871068 0
0.10471756 0.08386866 0.42090613 0
0.10645127 0.082880214 0.41988504 0
0.17201829 0.073254555 0.24175784 0
0.15736362 0.08247295 0.35938829 0
0.15751359 0.084007233 0.35939872 0
0.13460903 0.085192278 0.38401043 0
0.11078908 0.087548941 0.41663784 0
0.099531338 0.086955048 0.42520198 0
0.020095177 0.088472411 0.46321899 0
0.18065847 0.077078603 0.2355814 0
0.11221054 0.088353492 0.415512 0
0.10435115 0.088742785 0.4223052 0
0.097915091 0.090289548 0.42631429 0
0.023699291 0.090673506 0.45354518 0
0.1137448 0.091083735 0.41425413 0
0.015645713 0.094690293 0.46760932 0
0.010817513 0.095130511 0.47294968 0
0.012026146 0.09414731 0.47178861 0
0.11636312 0.092517547 0.41156664 0
0.11258516 0.094202563 0.41538522 0
0.021171883 0.096323483 0.45825055 0
0.11372441 0.09524741 0.41462922 0
0.11273725 0.096382566 0.41555217 0
0.14846919 0.094997898 0.36913097 0
0.13233943 0.09547805 0.37896696 0
0.11639613 0.097210705 0.41219836 0
0.17315571 0.087500915 0.23281491 0
0.15862647 0.096533269 0.35940152 0
0.11173163 0.09944088 0.41662803 0
0.10766552 0.10036348 0.4201721 0
0.15047747 0.09914723 0.36678785 0
0.11697853 0.10213199 0.4114601 0
0.11258041 0.10240766 0.41536155 0
0.17353459 0.091068208 0.22968018 0
0.15539736 0.10025319 0.36221319 0
0.15430076 0.10128855 0.363628 0
0.11022846 0.10336222 0.41730589 0
0.16875902 0.10201136 0.34137103 0
0.026943937 0.10841094 0.45119688 0
0.14507541 0.1046236 0.37001038 0
0.099367507 0.11108209 0.42415848 0
0.10234494 0.10987747 0.42247537 0
0.029956393 0.1114713 0.44720313 0
0.17349622 0.09852092 0.22304887 0
0.13142675 0.11042862 0.37334448 0
0.1611135 0.10073847 0.22994712 0
0.13120823 0.11272358 0.37352332 0
0.031520873 0.11646257 0.44872031 0
0.010089219 0.11922009 0.47546926 0
0.1569463 0.11322685 0.35639772 0
0.13059802 0.11472634 0.37363285 0
0.033459596 0.11776733 0.44568133 0
0.17777237 0.10565589 0.2115479 0
0.17774868 0.10564717 0.21158819 0
0.16868562 0.10593337 0.22180107 0
0.11784962 0.11912561 0.40547425 0
0.0092865229 0.12229084 0.47584566 0
0.12350516 0.12085979 0.39601147 0
0.096635386 0.12055466 0.42347646 0
0.17324719 0.11073937 0.21469566 0
0.16608846 0.12019967 0.3369638 0
0.17255133 0.11468872 0.24000941 0
0.17278646 0.12009229 0.30466518 0
0.17045052 0.11517447 0.21612738 0
0.15177384 0.13133293 0.42860392 0
0.18765804 0.13006046 0.38744897 0
0.18122579 0.13165458 0.39592683 0
0.14086692 0.13513325 0.44558594 0
0.28611273 0.1265334 0.29845276 0
0.25635499 0.12882088 0.34014735 0
0.18953763 0.13182178 0.38744232 0
0.17379054 0.13336441 0.4055095 0
0.17203918 0.13404873 0.40844241 0
0.17063516 0.13351411 0.40973508 0
0.16221008 0.13458641 0.42005208 0
0.14564328 0.13496684 0.44149685 0
0.12901312 0.13767822 0.46251807 0
0.28242218 0.12984446 0.30722341 0
0.18796363 0.13458711 0.38965806 0
0.18647629 0.13397136 0.39098322 0
0.18548188 0.13358961 0.39170066 0
0.16946386 0.13536564 0.41298699 0
0.14946216 0.13709159 0.43825117 0
0.26741326 0.1321473 0.32787558 0
0.24223387 0.13478777 0.35857469 0
0.20349517 0.13454282 0.37476617 0
0.1820785 0.13710293 0.39756197 0
0.13521756 0.14110065 0.45616785 0
0.27310514 0.13364461 0.32154059 0
0.24675131 0.13684127 0.35468656 0
0.20569536 0.13764894 0.37386304 0
0.20328996 0.13818781 0.37615046 0
0.18757266 0.13784072 0.39102298 0
0.17577505 0.13900648 0.4056575 0
0.16175984 0.14078745 0.42294049 0
0.14699873 0.14270701 0.44153339 0
0.12595671 0.14421521 0.46901953 0
0.25454408 0.13764897 0.34598878 0
0.1759111 0.14090165 0.40602687 0
0.23902684 0.14196134 0.36476472 0
0.14767009 0.14658499 0.44158667 0
0.14393747 0.1468865 0.44592091 0
0.28126773 0.13986261 0.31298524 0
0.12653312 0.15126923 0.46953672 0
0.26235813 0.14330541 0.33713594 0
0.24801816 0.14462626 0.35484022 0
0.20631184 0.14656341 0.37456256 0
0.20050859 0.14626962 0.38003924 0
0.17361042 0.14942081 0.41160783 0
0.20484176 0.14736076 0.37665838 0
0.20078644 0.14818768 0.38023749 0
0.1927495 0.14938127 0.3885546 0
0.18049261 0.14917128 0.4031097 0
0.17612964 0.15066157 0.4090502 0
0.17051244 0.15129127 0.41576815 0
0.13537167 0.15470459 0.46006927 0
0.27225679 0.1474292 0.32636613 0
0.20149156 0.1500311 0.38024098 0
0.18630593 0.1519088 0.39706579 0
0.15083006 0.15546632 0.44033909 0
0.120843 0.15764253 0.47874004 0
0.16522688 0.15536301 0.42281753 0
0.16224231 0.15599714 0.42533529 0
0.12710905 0.15826316 0.47074464 0
0.28178623 0.14969569 0.31508183 0
0.26531932 0.15212239 0.33570033 0
0.20815188 0.15352575 0.3755863 0
0.19030681 0.15658659 0.39301345 0
0.17893693 0.15707994 0.4080922 0
0.16521004 0.15729731 0.42274922 0
0.15586713 0.15852506 0.43506417 0
0.24678737 0.15428039 0.35820746 0
0.20684645 0.15646568 0.37658331 0
0.11934672 0.16367045 0.48129469 0
0.28903109 0.15336585 0.3059043 0
0.26325864 0.15511121 0.33951449 0
0.25156906 0.15757242 0.3549085 0
0.18509239 0.16278389 0.40084091 0
0.18294913 0.16352883 0.40368238 0
0.15218842 0.16625834 0.44120452 0
0.14610966 0.16658805 0.44852075 0
0.26873833 0.16019405 0.33400354 0
0.20803912 0.16280848 0.37694401 0
0.1805284 0.16416496 0.40617377 0
0.16409966 0.16737674 0.42659897 0
0.14990029 0.16877185 0.44381243 0
0.28367275 0.16029674 0.31628233 0
0.24200904 0.16444895 0.36596942 0
0.12120423 0.17390935 0.48163843 0
0.16590841 0.16988964 0.42554003 0
0.1569263 0.17247467 0.43733308 0
0.15184937 0.17119421 0.44255567 0
0.1500313 0.17153779 0.44519889 0
0.2477577 0.16711815 0.36105976 0
0.2415072 0.1692528 0.36870626 0
0.14765927 0.17410834 0.44985682 0
0.14772817 0.17422603 0.44979101 0
0.12241523 0.17782448 0.481334 0
0.26263216 0.17151111 0.34423447 0
0.18866858 0.17571981 0.39913708 0
0.14284125 0.17970049 0.45633575 0
0.13284683 0.18080398 0.47009709 0
0.20067081 0.17594631 0.38580033 0
0.16640964 0.18016975 0.42869166 0
0.14177546 0.18083529 0.45765013 0
0.12858249 0.18574964 0.47555611 0
0.20190081 0.17970482 0.38534856 0
0.14631745 0.18517634 0.45377851 0
0.20070237 0.18220791 0.38822311 0
0.13902074 0.18882251 0.46286795 0
0.12420469 0.18949446 0.48240173 0
0.25044143 0.18250769 0.36168313 0
0.19998263 0.18401484 0.38953969 0
0.1682127 0.18814543 0.42740771 0
0.14750215 0.18929394 0.45378891 0
0.25451347 0.1834183 0.35743585 0
0.25055286 0.18467699 0.36189839 0
0.20794347 0.18585518 0.38070795 0
0.17740153 0.18829407 0.416587 0
0.27603155 0.18469457 0.33137092 0
0.19747135 0.18940638 0.39328587 0
0.13863239 0.1952502 0.46447727 0
0.13360514 0.19583277 0.47113624 0
0.2531065 0.18786953 0.36015412 0
0.24264415 0.18992302 0.37337029 0
0.20411566 0.1913262 0.38709837 0
0.19807041 0.19125216 0.39311391 0
0.25943786 0.18951543 0.35370862 0
0.2493408 0.1901032 0.36537543 0
0.20450155 0.19325131 0.38697881 0
0.15121394 0.1985033 0.45068914 0
0.14391369 0.19937187 0.46027464 0
0.141945 0.20166859 0.46290922 0
0.28063273 0.19156922 0.32802874 0
0.25421274 0.19362111 0.36020115 0
0.24778453 0.19469649 0.36817396 0
0.20562793 0.19589344 0.38664648 0
0.19482109 0.1992851 0.39961326 0
0.15239689 0.20423234 0.45081991 0
0.27186775 0.19769807 0.33984149 0
0.17096561 0.20473976 0.42857382 0
0.15710083 0.20526791 0.44536731 0
0.14622663 0.2074739 0.45892918 0
0.12891388 0.2087983 0.4803156 0
0.28111079 0.19837035 0.32956749 0
0.24910215 0.20029433 0.3681345 0
0.20284685 0.2026723 0.39194438 0
0.16537568 0.2066683 0.43577871 0
0.14906624 0.2094098 0.45612156 0
0.13735649 0.21055061 0.47053987 0
0.12651283 0.21210691 0.4843781 0
0.29259396 0.19785525 0.31236607 0
0.25602281 0.20310655 0.36122194 0
0.18378183 0.20712484 0.41371822 0
0.1655653 0.20990801 0.43475813 0
0.15536352 0.20983176 0.44796526 0
0.27268577 0.20377006 0.34032261 0
0.18035567 0.20906982 0.41791567 0
0.17524041 0.21079656 0.42437297 0
0.20308556 0.21031059 0.39292395 0
0.16609719 0.21671666 0.43709853 0
0.19768208 0.21431665 0.39910161 0
0.1809151 0.21608585 0.41923246 0
0.29168442 0.21021366 0.31974059 0
0.26632586 0.2116738 0.35007441 0
0.14435187 0.2232058 0.46560648 0
0.24975339 0.21491534 0.36925295 0
0.24970654 0.21494675 0.36931086 0
0.24095398 0.2156813 0.37921873 0
0.16783844 0.22295216 0.43662414 0
0.16569255 0.22163492 0.43833533 0
0.14122936 0.22489771 0.4699921 0
0.12850583 0.22636433 0.48674783 0
0.27988476 0.21446471 0.33489662 0
0.24229708 0.21851395 0.37820688 0
0.19807264 0.22126716 0.40036923 0
0.17526534 0.2229318 0.42681599 0
0.16393387 0.2242294 0.44092917 0
0.12898949 0.2283501 0.48681006 0
0.29762143 0.21585427 0.31300932 0
0.28635731 0.21592283 0.32796538 0
0.2428295 0.22039132 0.37812001 0
0.1842297 0.2255619 0.41735309 0
0.30322748 0.21553507 0.30624679 0
0.28514951 0.21741594 0.32946345 0
0.26741728 0.22114956 0.34933341 0
0.2668539 0.21939947 0.34954405 0
0.17512345 0.22793294 0.42825428 0
0.15403438 0.23053065 0.45580107 0
0.28773057 0.22036755 0.32641175 0
0.27837887 0.22168192 0.33669451 0
0.24514261 0.22567168 0.37586406 0
0.1367093 0.23414886 0.47855017 0
0.30380523 0.21975507 0.30652371 0
0.28119996 0.22371265 0.33422798 0
0.20569479 0.22819313 0.39408806 0
0.18262485 0.23351072 0.4218514 0
0.13188797 0.23917133 0.48689282 0
0.27906513 0.2277305 0.33686361 0
0.15034971 0.23994471 0.46391225 0
0.14106943 0.2404612 0.47530988 0
0.27801129 0.22866623 0.33781222 0
0.246602 0.23206946 0.37408334 0
0.24315092 0.23347549 0.37760812 0
0.19304752 0.23645996 0.41059792 0
0.15795231 0.24007009 0.45485845 0
0.14975515 0.2412923 0.46530837 0
0.1401372 0.24136539 0.47632611 0
0.080453262 0.24704383 0.51471674 0
0.28926915 0.22922264 0.32442215 0
0.19984843 0.23686397 0.40253279 0
0.13922328 0.24552725 0.47875878 0
0.3181282 0.22807804 0.28917232 0
0.30367568 0.23177472 0.30812091 0
0.29157203 0.23226857 0.32241198 0
0.20439202 0.23992267 0.39915699 0
0.17804447 0.2427115 0.42997536 0
0.16519617 0.24495021 0.44636598 0
0.28424704 0.23466198 0.33155107 0
0.19988224 0.24182598 0.40404448 0
0.20134899 0.24225709 0.40276557 0
0.18261147 0.24477991 0.42553374 0
0.15615602 0.24645491 0.45825085 0
0.088342085 0.25204107 0.51007241 0
0.19751459 0.24513654 0.40817076 0
0.1484862 0.25065774 0.46985132 0
0.31036499 0.2354288 0.29966196 0
0.28641367 0.238442 0.32873926 0
0.25502211 0.24276611 0.36471865 0
0.17777929 0.24878159 0.43208009 0
0.15982097 0.25127998 0.45518592 0
0.13752702 0.25461882 0.48414648 0
0.23940723 0.24512444 0.38312164 0
0.20469111 0.24886048 0.40179223 0
0.19023812 0.25072426 0.4191989 0
0.089922071 0.2587432 0.51764321 0
0.33787608 0.23737796 0.26629165 0
0.30418482 0.24126929 0.30801335 0
0.27290636 0.24515913 0.34373498 0
0.26076072 0.24574281 0.35829234 0
0.25700203 0.2467628 0.36232841 0
0.24261719 0.24757515 0.37906075 0
0.20081685 0.24969979 0.40704527 0
0.18922627 0.25221521 0.42118689 0
0.18578732 0.25254822 0.4254981 0
0.16586724 0.25525731 0.44951427 0
0.15836397 0.25444052 0.4576194 0
0.28856462 0.24464919 0.32637453 0
0.23278528 0.25167504 0.39022732 0
0.2338475 0.25056434 0.38901266 0
0.19454984 0.25318229 0.4164184 0
0.18138051 0.25497526 0.43055889 0
0.16617458 0.25725216 0.45019647 0
0.096784614 0.2623758 0.5100925 0
0.091484264 0.26257679 0.51797861 0
0.28861278 0.24658994 0.32631582 0
0.23815161 0.25329784 0.38540304 0
0.19420269 0.25641891 0.41758126 0
0.14651279 0.26238012 0.47613043 0
0.3216776 0.24564451 0.285759 0
0.25662822 0.25221843 0.36323181 0
0.19565374 0.25696081 0.41629222 0
0.1930719 0.25768191 0.41885558 0
0.19242942 0.25894129 0.42017397 0
0.33342585 0.24645774 0.27235106 0
0.32651982 0.24737729 0.28103161 0
0.28275713 0.25087216 0.3325671 0
0.25433609 0.2548767 0.36599216 0
0.23431857 0.25700492 0.38920456 0
0.16573884 0.26324883 0.45312914 0
0.33446819 0.24741185 0.2708537 0
0.32305759 0.24829912 0.28455305 0
0.31650624 0.25020772 0.29182994 0
0.28255543 0.25284609 0.33256945 0
0.18971489 0.26375756 0.42661822 0
0.15476461 0.26695597 0.47013262 0
0.14943901 0.2669546 0.47583306 0
0.32079923 0.25052133 0.2865141 0
0.28844607 0.25420058 0.32587999 0
0.25204182 0.25896546 0.36879495 0
0.24971184 0.25884172 0.37133154 0
0.24880421 0.26001641 0.37238055 0
0.18804693 0.26471534 0.42954651 0
0.16216391 0.26895785 0.46269354 0
0.16053972 0.26892158 0.46411979 0
0.29568821 0.25551498 0.31709164 0
0.29484749 0.25641158 0.31818345 0
0.28815043 0.25625414 0.32580706 0
0.24052456 0.2627371 0.38256061 0
0.1663859 0.27106863 0.46176174 0
0.152803 0.27262571 0.4813509 0
0.32016063 0.25507489 0.28756049 0
0.30722928 0.25698763 0.30346832 0
0.27650261 0.26032543 0.33960712 0
0.26710829 0.26162338 0.35109341 0
0.24297939 0.26488653 0.38016793 0
0.14092427 0.27586457 0.49897626 0
0.24171013 0.26582086 0.38137388 0
0.22229414 0.26840702 0.40330532 0
0.22354844 0.26754236 0.40234166 0
0.30044329 0.26075619 0.31180921 0
0.27768677 0.26495606 0.33788142 0
0.2351881 0.26879084 0.38892335 0
0.21132123 0.27296031 0.41657668 0
0.2043739 0.27163467 0.42284814 0
0.15029223 0.27907532 0.48918617 0
0.14910093 0.27846509 0.49118158 0
0.14340279 0.28000844 0.49781448 0
0.13555464 0.28180432 0.50701159 0
0.097785905 0.28612417 0.55316114 0
0.3279435 0.26105195 0.27816305 0
0.23267663 0.27057973 0.39159197 0
0.22394259 0.27304399 0.40179777 0
0.15788054 0.28069463 0.48055226 0
0.14501297 0.28111041 0.49627396 0
0.12151019 0.28590155 0.52536112 0
0.10268311 0.2863887 0.54786628 0
0.097331539 0.28780234 0.5544436 0
0.27280691 0.26819697 0.34456584 0
0.19894701 0.27688816 0.4313288 0
0.14856547 0.28338191 0.49245217 0
0.14624092 0.2835201 0.49498168 0
0.11465959 0.28780729 0.53375983 0
0.098086931 0.29058105 0.55365592 0
0.090784326 0.29040912 0.56259644 0
0.33327055 0.26330826 0.27209458 0
0.24612042 0.27325833 0.3764542 0
0.23618485 0.27560559 0.38728657 0
0.21855962 0.27754784 0.40821162 0
0.17043583 0.28387126 0.46482801 0
0.15319258 0.28608823 0.48700967 0
0.098121665 0.29180887 0.55509174 0
0.31726187 0.26670909 0.29073888 0
0.31243703 0.26780593 0.2969707 0
0.24502563 0.27635866 0.37755007 0
0.23069097 0.27731454 0.39395639 0
0.16520676 0.2859506 0.47182697 0
0.12049079 0.29104325 0.52817911 0
0.32550582 0.26885152 0.28089991 0
0.26060882 0.27711076 0.35909134 0
0.18710954 0.28436321 0.44570774 0
0.18308429 0.28562474 0.45087975 0
0.18025991 0.28727233 0.45491201 0
0.16254994 0.28741276 0.4764294 0
0.14906545 0.29047033 0.49408746 0
0.12200944 0.29378414 0.5268333 0
0.33641973 0.27007359 0.26799726 0
0.2752448 0.27728173 0.34103307 0
0.20262715 0.28608873 0.42843932 0
0.18067324 0.28881082 0.45481679 0
0.11409023 0.29576311 0.53702587 0
0.098558068 0.29847485 0.55594319 0
0.092216924 0.29870281 0.56315523 0
0.2753045 0.27919054 0.34070972 0
0.2278277 0.28562382 0.39923808 0
0.22405353 0.28563979 0.40337387 0
0.14263156 0.29584756 0.50219971 0
0.11553137 0.29924163 0.5349918 0
0.092668213 0.3022292 0.56240374 0
0.317267 0.27646938 0.29138428 0
0.30429837 0.2766194 0.30700365 0
0.30207407 0.27841246 0.30937853 0
0.16847056 0.2936179 0.47035784 0
0.15915771 0.29600656 0.48150504 0
0.14745709 0.29651594 0.4961516 0
0.1211739 0.29923925 0.52828342 0
0.095242396 0.30230471 0.56014931 0
0.31542549 0.27891567 0.29452536 0
0.25162917 0.28696403 0.37163159 0
0.172759 0.2954323 0.4647547 0
0.14013776 0.30027753 0.50459373 0
0.26361951 0.28651467 0.35666761 0
0.24543174 0.28954849 0.37922859 0
0.23819572 0.28910407 0.38757375 0
0.23052698 0.29089841 0.39749089 0
0.2194147 0.29212713 0.40959543 0
0.18688986 0.29680774 0.44785866 0
0.17512441 0.29730192 0.46234673 0
0.16851602 0.29761785 0.47021535 0
0.16637841 0.29781553 0.47312313 0
0.16412261 0.29969019 0.47599328 0
0.13296115 0.30195498 0.51392323 0
0.10670039 0.30583721 0.54593867 0
0.16552746 0.30089471 0.47416785 0
0.15759279 0.30206323 0.48381573 0
0.10812961 0.30699608 0.54413253 0
0.091284215 0.30967501 0.56401032 0
0.26946658 0.29033199 0.35031494 0
0.26169047 0.29150578 0.3597278 0
0.25390062 0.29133844 0.36853921 0
0.2196817 0.29599494 0.40941513 0
0.18389475 0.30113393 0.45175105 0
0.13761455 0.30590114 0.50792229 0
0.13785762 0.30586812 0.50823128 0
0.095855601 0.31111947 0.55861473 0
0.31159884 0.28742516 0.29945552 0
0.25700897 0.29342663 0.3651852 0
0.25078145 0.29429436 0.37257016 0
0.205772 0.29925391 0.42558533 0
0.1570029 0.30655003 0.48459157 0
0.15273651 0.30683714 0.48978025 0
0.10123147 0.3139666 0.5519771 0
0.099927895 0.31327236 0.55307704 0
0.097939543 0.31293002 0.55591214 0
0.30821401 0.28823882 0.3030968 0
0.29542255 0.29177651 0.31891701 0
0.25511163 0.29627329 0.36725187 0
0.23922011 0.2982198 0.3858203 0
0.23138285 0.29912493 0.39495063 0
0.21854761 0.30103737 0.41070187 0
0.21354365 0.30175892 0.41639104 0
0.2112864 0.30169049 0.41909459 0
0.18643935 0.30483511 0.44885179 0
0.17628402 0.30668825 0.46022731 0
0.16183084 0.30708265 0.47847793 0
0.10345408 0.31440249 0.54915851 0
0.33825105 0.28671491 0.26746923 0
0.31964374 0.28977263 0.28981543 0
0.29627022 0.29293653 0.3175154 0
0.28267473 0.29466975 0.33338431 0
0.24749151 0.29927802 0.37647772 0
0.15464088 0.31056431 0.48720464 0
0.13985437 0.31176749 0.50552696 0
0.12708625 0.31344843 0.52041936 0
0.10150818 0.31803745 0.55187851 0
0.33696711 0.28965968 0.26888207 0
0.30478859 0.29317003 0.30720773 0
0.29978809 0.29407081 0.31396094 0
0.29223359 0.29466176 0.32275215 0
0.25964627 0.29848164 0.36108074 0
0.19733247 0.30777687 0.43617648 0
0.14553572 0.31434092 0.49702147 0
0.14106415 0.3148711 0.50422883 0
0.1295618 0.31600454 0.51738083 0
0.11866105 0.31810713 0.53091806 0
0.33453456 0.29152691 0.27146032 0
0.32071966 0.29277349 0.28843224 0
0.22156543 0.30623451 0.40666547 0
0.17760885 0.31155667 0.45901206 0
0.17038697 0.31306455 0.46796477 0
0.16808724 0.31356677 0.470662 0
0.15780787 0.31531909 0.48341849 0
0.1399437 0.31722683 0.50564039 0
0.1329003 0.31750461 0.51346719 0
0.12724888 0.31760642 0.5201304 0
0.11594369 0.31967083 0.53421259 0
0.10011946 0.32088321 0.55299503 0
0.31360719 0.29712635 0.2964403 0
0.31147552 0.29720461 0.29905239 0
0.27537209 0.30130392 0.34211126 0
0.12628323 0.32106701 0.52126133 0
0.12722859 0.31974027 0.52001995 0
0.099146709 0.32389933 0.55436021 0
0.098174371 0.32484338 0.55529732 0
0.25044969 0.30636916 0.37220478 0
0.22931187 0.30880749 0.3976596 0
0.21448934 0.31051219 0.41498724 0
0.2110039 0.31165576 0.41884926 0
