# .PCD v0.7 - Point Cloud Data file format
VERSION 0.7
FIELDS x y z intensity
SIZE 4 4 4 4
TYPE F F F F
COUNT 1 1 1 1
WIDTH 1342
HEIGHT 1
VIEWPOINT 0 0 0 1 0 0 0
POINTS 1342
DATA ascii
0.23193914 0.54431611 0.41024083 0
0.16498999 0.55593109 0.49130058 0
0.16312927 0.55550057 0.49454257 0
0.14033791 0.56010228 0.5221886 0
0.1185051 0.56444567 0.54877281 0
0.11755559 0.5653041 0.55032629 0
0.11404991 0.56440979 0.55439723 0
0.36222249 0.52228349 0.25239134 0
0.25169879 0.54190171 0.38651657 0
0.24813896 0.54288238 0.39073533 0
0.16852836 0.55711073 0.48773366 0
0.16724253 0.55809677 0.48897952 0
0.15261036 0.55999076 0.50727522 0
0.13413018 0.56398952 0.5304352 0
0.10499816 0.56805909 0.56562907 0
0.14384061 0.56490982 0.51773238 0
0.11534489 0.56957763 0.55250007 0
0.096611217 0.57191819 0.57614422 0
0.28845188 0.53991556 0.3415207 0
0.21692315 0.55328786 0.42778468 0
0.14273094 0.56582183 0.51916498 0
0.12512437 0.56884551 0.54027784 0
0.17465287 0.56334871 0.4798266 0
0.1516602 0.56697005 0.50860661 0
0.14065716 0.56801689 0.52206534 0
0.35735971 0.5315116 0.25847971 0
0.25786012 0.54997051 0.37829715 0
0.17746559 0.56407166 0.47638577 0
0.15489799 0.56772202 0.50446165 0
0.15027706 0.56980854 0.50939977 0
0.14933053 0.56911713 0.5109846 0
0.14055707 0.57002115 0.52207446 0
0.10838531 0.57709283 0.56065023 0
0.099156722 0.57896185 0.57201654 0
0.3543134 0.53422433 0.26114848 0
0.33376908 0.53642923 0.28679621 0
0.30938062 0.54086602 0.3155058 0
0.27600667 0.54839593 0.35600358 0
0.22562845 0.55758107 0.41755179 0
0.20629963 0.56126183 0.44070533 0
0.11759879 0.57717788 0.54934227 0
0.3372733 0.53808802 0.28148356 0
0.27489644 0.5493958 0.35744306 0
0.22450292 0.55924261 0.41834995 0
0.2054269 0.56258672 0.44114459 0
0.20150942 0.56321436 0.44684318 0
0.19697413 0.56469196 0.45197448 0
0.16115417 0.57189375 0.49640822 0
0.15452905 0.57162273 0.50422448 0
0.12623452 0.57827777 0.53929716 0
0.30689925 0.54634595 0.31689769 0
0.20923522 0.56441504 0.43636742 0
0.13051984 0.57915604 0.53396028 0
0.10303392 0.58287889 0.5667609 0
0.31427702 0.54589349 0.30876958 0
0.23025548 0.56327116 0.41125289 0
0.18609858 0.57137758 0.46522433 0
0.1664494 0.57341933 0.48919886 0
0.15687835 0.57573295 0.50172293 0
0.25884551 0.55870813 0.37649667 0
0.20029697 0.57061023 0.44753432 0
0.16404548 0.57749355 0.4919638 0
0.16031241 0.57676286 0.49775973 0
0.1408843 0.58045191 0.52046448 0
0.34150451 0.54629701 0.27616286 0
0.32432988 0.54970807 0.29677585 0
0.21918684 0.56781018 0.42454204 0
0.095134616 0.59037501 0.57620335 0
0.3425588 0.54727393 0.27487001 0
0.34017915 0.54690343 0.27722308 0
0.33067295 0.54905277 0.28942451 0
0.29670095 0.55567366 0.33040661 0
0.27001762 0.55992645 0.36285284 0
0.23688842 0.56742978 0.40309525 0
0.22484902 0.57023221 0.41705659 0
0.22536947 0.56830323 0.41696656 0
0.21858215 0.56965321 0.42499655 0
0.1737965 0.57956457 0.47990096 0
0.1553255 0.58318365 0.50278163 0
0.35832065 0.5454942 0.25516832 0
0.29065922 0.55831349 0.33777851 0
0.17604092 0.57948506 0.47712776 0
0.15544486 0.58514297 0.50293982 0
0.13031933 0.58895558 0.53344619 0
0.11561442 0.5922209 0.55112094 0
0.24105433 0.56947815 0.39740252 0
0.15937901 0.58538038 0.49765131 0
0.15713091 0.58801407 0.50157726 0
0.11057323 0.59761393 0.55746794 0
0.10919648 0.59620702 0.55862117 0
0.3595998 0.55182683 0.25367588 0
0.30426776 0.56251884 0.32070011 0
0.28960013 0.56504112 0.33875296 0
0.16490363 0.58863539 0.490251 0
0.16481434 0.58851117 0.49051949 0
0.15600632 0.59041107 0.50207871 0
0.13927647 0.59399772 0.52169305 0
0.27734888 0.56934893 0.35317209 0
0.26332107 0.57274735 0.37020609 0
0.24141806 0.57591194 0.39674067 0
0.19368702 0.58617693 0.45494655 0
0.12975666 0.59724146 0.53355235 0
0.12330383 0.59921378 0.54175949 0
0.34783804 0.55822945 0.26754674 0
0.29062164 0.56862843 0.337203 0
0.22602871 0.58105481 0.415411 0
0.15500052 0.5949465 0.50280213 0
0.13431413 0.5991658 0.52818549 0
0.14875063 0.59753513 0.51035506 0
0.10398236 0.6059224 0.5652625 0
0.29477233 0.57293838 0.33129665 0
0.2638886 0.57712829 0.36926481 0
0.17495744 0.59554386 0.47760957 0
0.35988021 0.56222665 0.25328481 0
0.35823876 0.56292808 0.25511926 0
0.17733024 0.59735543 0.47481251 0
0.31512249 0.5728991 0.30617803 0
0.22290117 0.58932465 0.41835105 0
0.17737463 0.59741485 0.47480384 0
0.15967414 0.60194176 0.49636677 0
0.10138088 0.61354393 0.56799757 0
0.24128966 0.58819002 0.39602229 0
0.23918083 0.58799535 0.39875019 0
0.2294765 0.59122074 0.41020203 0
0.19005075 0.59711069 0.45881706 0
0.13635804 0.60917836 0.52499551 0
0.10035157 0.61526197 0.56911629 0
0.30134684 0.57861859 0.32363963 0
0.27397582 0.58436489 0.35662526 0
0.26719037 0.58547771 0.36450574 0
0.25653797 0.58776468 0.37808195 0
0.10015567 0.61725342 0.56909674 0
0.33205757 0.57479227 0.28610516 0
0.30995408 0.5788523 0.31312472 0
0.25462943 0.58998269 0.37978584 0
0.19125466 0.60231984 0.45694008 0
0.19036752 0.6011827 0.45850801 0
0.12401441 0.61435825 0.54040217 0
0.33777899 0.57579362 0.27859694 0
0.33131868 0.57725579 0.28632817 0
0.30301845 0.5815261 0.321116 0
0.19888942 0.6020931 0.44764382 0
0.19236813 0.60352761 0.45579395 0
0.30896753 0.58415401 0.31438726 0
0.27467647 0.5891546 0.35506716 0
0.21408759 0.6012727 0.42888793 0
0.12229832 0.61946368 0.54151422 0
0.34064633 0.57832885 0.2755335 0
0.32709774 0.58162671 0.2912989 0
0.29314139 0.5891192 0.33254093 0
0.20951757 0.60524482 0.43390933 0
0.18030614 0.61030579 0.47015727 0
0.13077912 0.62001824 0.53187752 0
0.33068433 0.5835197 0.28629065 0
0.32178292 0.58528519 0.29803053 0
0.23104568 0.60138524 0.40741238 0
0.12836096 0.62133574 0.53445846 0
0.11418001 0.62525678 0.55135554 0
0.35189989 0.57979739 0.26120487 0
0.24280016 0.60234463 0.39349294 0
0.2406795 0.60223764 0.3965739 0
0.23332892 0.60354692 0.40499783 0
0.23014639 0.60400355 0.40921545 0
0.20843647 0.60831791 0.43527487 0
0.17801581 0.61479235 0.47262669 0
0.14327542 0.62142748 0.51532155 0
0.32411313 0.58818561 0.29424161 0
0.21114972 0.61009598 0.43277225 0
0.33849528 0.58717626 0.27682358 0
0.33760101 0.58781677 0.27869678 0
0.31465405 0.59256148 0.30594859 0
0.30852577 0.59308106 0.31305721 0
0.23313047 0.60710967 0.40408993 0
0.19611961 0.61477327 0.45025247 0
0.1897077 0.61556435 0.45826948 0
0.35838526 0.58437765 0.25296837 0
0.33044937 0.59154373 0.28708586 0
0.26898348 0.60213 0.36110008 0
0.25104123 0.60540009 0.38375518 0
0.2389694 0.60821736 0.39725989 0
0.20820189 0.61537027 0.43581617 0
0.15885213 0.62346846 0.49617928 0
0.31163123 0.59549487 0.30928466 0
0.29795712 0.5992505 0.3259989 0
0.20913106 0.61641914 0.43441296 0
0.14527935 0.62957692 0.51234412 0
0.30924684 0.59813434 0.3116833 0
0.29243442 0.60252982 0.3320151 0
0.28450626 0.60344863 0.34248215 0
0.26053447 0.60878676 0.37111002 0
0.25454408 0.6099385 0.37771434 0
0.21204922 0.61771041 0.43025532 0
0.16401812 0.62676877 0.48883891 0
0.14710261 0.63136053 0.50971276 0
0.31235942 0.60053867 0.30819967 0
0.29874784 0.60230911 0.32552239 0
0.22649059 0.61635047 0.4122861 0
0.21302412 0.62045687 0.42896178 0
0.15250961 0.63166755 0.5047996 0
0.24435112 0.61620063 0.39097163 0
0.17107335 0.63036168 0.48065662 0
0.15622286 0.63346291 0.49891773 0
0.14968041 0.63424706 0.50696355 0
0.11020574 0.64114273 0.55609822 0
0.36261657 0.59420246 0.24708313 0
0.27038622 0.61204821 0.35835618 0
0.26996577 0.61314124 0.35954183 0
0.26076421 0.61426204 0.37017712 0
0.19756103 0.62775254 0.44782755 0
0.19175646 0.62891823 0.45514527 0
0.15223867 0.63487947 0.5043025 0
0.36256918 0.59603119 0.24762094 0
0.35566142 0.59792769 0.25528646 0
0.30458915 0.60798186 0.31763753 0
0.22277291 0.62334347 0.41671023 0
0.16309874 0.63596743 0.49022219 0
0.13834758 0.64037108 0.52030307 0
0.12803264 0.64358515 0.53308052 0
0.12334459 0.64320987 0.5384469 0
0.35201752 0.60053742 0.25987589 0
0.30992803 0.60856831 0.31071654 0
0.2911711 0.61183286 0.33347097 0
0.27828118 0.61430669 0.34908199 0
0.15980318 0.63905799 0.49381468 0
0.30752492 0.61091584 0.31368515 0
0.23949267 0.62516469 0.39606744 0
0.14449389 0.6440289 0.51325536 0
0.14306927 0.64486146 0.51479048 0
0.25574499 0.62593389 0.37528533 0
0.22162884 0.63299954 0.41723153 0
0.19637831 0.63677394 0.44865382 0
0.19024172 0.63892657 0.4563351 0
0.13156213 0.64956886 0.52850533 0
0.28371096 0.62134159 0.34188098 0
0.166706 0.64539635 0.48497355 0
0.10206636 0.65892106 0.56399298 0
0.27037156 0.62591821 0.35818285 0
0.22247528 0.63611972 0.41684112 0
0.21220958 0.63889617 0.42909378 0
0.18688884 0.64410561 0.45982587 0
0.1144015 0.65694129 0.54869068 0
0.31547153 0.6183663 0.30359706 0
0.28437468 0.6249398 0.34028196 0
0.23926933 0.63419139 0.39561725 0
0.35728252 0.61248124 0.2527467 0
0.34609422 0.6142267 0.26580247 0
0.33623526 0.61713922 0.2779662 0
0.28618881 0.62759697 0.3379339 0
0.20319973 0.64314198 0.43994778 0
0.13852666 0.65596342 0.51946026 0
0.11598 0.66178685 0.54692924 0
0.099040151 0.66396475 0.56803453 0
0.27630821 0.63010627 0.35053784 0
0.21412122 0.64316994 0.42614192 0
0.18936698 0.64933217 0.45645007 0
0.165251 0.65255851 0.48628458 0
0.14011827 0.65874875 0.51664889 0
0.34360039 0.619829 0.2684584 0
0.29334554 0.62928295 0.32990229 0
0.21130633 0.64528632 0.43021783 0
0.13280807 0.66159141 0.52606624 0
0.13365221 0.66140628 0.52459377 0
0.30129918 0.63098741 0.32035145 0
0.28431326 0.63379198 0.34044495 0
0.27564526 0.63606036 0.35070735 0
0.25966322 0.63861883 0.36962947 0
0.25713044 0.63801992 0.37349424 0
0.21978275 0.64629853 0.41945404 0
0.19295809 0.65258193 0.45226991 0
0.12356114 0.66538733 0.53744447 0
0.33676544 0.6256845 0.27676153 0
0.31615031 0.62957877 0.30190364 0
0.30125913 0.63108504 0.32033277 0
0.22872835 0.64711285 0.4082962 0
0.21434911 0.65027052 0.42587957 0
0.18590038 0.65469038 0.46049917 0
0.13738699 0.66638607 0.52024293 0
0.11269295 0.67128628 0.55033493 0
0.10282905 0.67186624 0.56222266 0
0.25314367 0.64440185 0.37798735 0
0.20124462 0.65420485 0.4415825 0
0.19210163 0.65653026 0.45281744 0
0.10187684 0.67499667 0.56327027 0
0.3457427 0.62779951 0.26590544 0
0.19492704 0.65708733 0.44789058 0
0.19415022 0.65818012 0.44941318 0
0.19086488 0.65764445 0.45393133 0
0.18121098 0.65965033 0.46542209 0
0.16620593 0.66338372 0.48437214 0
0.14127834 0.66948116 0.51497889 0
0.13680732 0.66966832 0.52017099 0
0.13143402 0.67008239 0.5274263 0
0.11333774 0.67485267 0.54886425 0
0.34430569 0.62939018 0.26800022 0
0.2493664 0.64928341 0.38200471 0
0.19206111 0.66054738 0.45246041 0
0.12883362 0.67398733 0.5298413 0
0.12086289 0.67526233 0.53917801 0
0.11645804 0.67516041 0.54507488 0
0.10260691 0.67839116 0.56205791 0
0.29351798 0.64122784 0.32847035 0
0.1871897 0.66369808 0.45899397 0
0.13135406 0.67390335 0.52720928 0
0.11259049 0.67894232 0.54864585 0
0.10941225 0.67976916 0.55288452 0
0.32462418 0.63729417 0.2911146 0
0.18608433 0.66543603 0.45898354 0
0.17651947 0.66734779 0.4705683 0
0.17553286 0.66809243 0.47233355 0
0.14529419 0.67371386 0.50947863 0
0.12008629 0.67922276 0.54001045 0
0.119835 0.67827332 0.54030204 0
0.11594656 0.67963219 0.54498947 0
0.1119495 0.68175703 0.55058193 0
0.097457789 0.68275595 0.5676825 0
0.290815 0.64506853 0.33116689 0
0.24075532 0.65533012 0.39115021 0
0.17820139 0.668827 0.46881464 0
0.15832698 0.67408246 0.49299243 0
0.1170269 0.68257064 0.5437631 0
0.10100183 0.68478477 0.5647077 0
0.2311053 0.6606999 0.40351579 0
0.2090552 0.66577834 0.43152151 0
0.12985626 0.68090117 0.5285812 0
0.12624525 0.68240845 0.53280556 0
0.28699064 0.65127009 0.33536914 0
0.27889815 0.65200317 0.34512776 0
0.13781828 0.68070143 0.5189563 0
0.13735019 0.68263876 0.51893365 0
0.12465464 0.68356174 0.53387928 0
0.34259292 0.64190346 0.26841334 0
0.28835896 0.65228879 0.33417678 0
0.18108967 0.67529088 0.46494442 0
0.16336595 0.67899853 0.48601538 0
0.1593221 0.67900175 0.49153802 0
0.15528816 0.68074977 0.49728179 0
0.12487119 0.68744177 0.53344393 0
0.12388746 0.68880874 0.53441477 0
0.097416818 0.69464594 0.5666737 0
0.33447799 0.64672172 0.27778554 0
0.285786 0.65602356 0.33688381 0
0.2793144 0.65865773 0.34462672 0
0.25189903 0.66387063 0.37756911 0
0.23409075 0.66761929 0.39956126 0
0.20185781 0.67425591 0.43981513 0
0.15945294 0.68300962 0.49184668 0
0.14590418 0.6870048 0.50778764 0
0.12399122 0.69068611 0.53513044 0
0.11989897 0.69133705 0.53963524 0
0.10998024 0.69259495 0.55128425 0
0.10046916 0.69589216 0.56337744 0
0.097450204 0.69679594 0.56647968 0
0.34894037 0.64496088 0.26087707 0
0.20564786 0.6750111 0.4345344 0
0.20674294 0.67604339 0.43326187 0
0.19873793 0.67709517 0.44302064 0
0.14252117 0.68810177 0.51191556 0
0.13340615 0.68976891 0.52290756 0
0.11340405 0.69539273 0.54775643 0
0.11186752 0.69443786 0.54904693 0
0.11070712 0.69572318 0.5499233 0
0.35207924 0.64648688 0.25661886 0
0.33516634 0.6504451 0.27716497 0
0.21632746 0.67630178 0.42061019 0
0.19590291 0.67906266 0.44570503 0
0.13722509 0.69205624 0.51808029 0
0.12867424 0.69377333 0.53019136 0
0.12101339 0.69442952 0.53785694 0
0.105468 0.6995042 0.5565607 0
0.27115577 0.66521424 0.35482097 0
0.26396838 0.66750818 0.36289749 0
0.26259369 0.66846156 0.36413264 0
0.25162807 0.66998631 0.37739581 0
0.24914169 0.67036146 0.3805618 0
0.18872201 0.68288708 0.45542744 0
0.15015426 0.69042224 0.50218284 0
0.11513898 0.69897997 0.54427934 0
0.20760605 0.6817627 0.43227369 0
0.14529721 0.6948241 0.50774544 0
0.32210693 0.65976864 0.29270282 0
0.29090372 0.66583782 0.33007929 0
0.22634251 0.67871648 0.40831691 0
0.22360134 0.6795131 0.41268668 0
0.22355205 0.679537 0.41289434 0
0.2123037 0.68141961 0.42674768 0
0.17798902 0.68861812 0.46794632 0
0.16314469 0.6930815 0.48614547 0
0.1616053 0.69329107 0.48769256 0
0.098473296 0.70530558 0.56450909 0
0.3077606 0.66452956 0.30869815 0
0.29065013 0.66824847 0.3294296 0
0.19331612 0.68763226 0.44886997 0
0.15788463 0.69613594 0.49265054 0
0.23220198 0.68288052 0.40057203 0
0.21942709 0.68456799 0.41651818 0
0.20909628 0.68614489 0.42928639 0
0.15427765 0.69943571 0.49662694 0
0.12510908 0.70441699 0.53231239 0
0.22669993 0.68602955 0.40728331 0
0.21339568 0.6890409 0.42383403 0
0.12605941 0.7056098 0.53086555 0
0.1086387 0.7105388 0.55235773 0
0.32033241 0.66828471 0.29383233 0
0.25265694 0.68137759 0.37573913 0
0.23227635 0.68678564 0.40021163 0
0.2299833 0.68699521 0.40280026 0
0.13790067 0.70714355 0.51625454 0
0.10921323 0.71235514 0.55114472 0
0.19627926 0.69593334 0.44476181 0
0.11769915 0.71252686 0.54064572 0
0.19633889 0.69814372 0.44465527 0
0.26096284 0.68534476 0.36507443 0
0.21230274 0.69683069 0.42500868 0
0.19399558 0.70005912 0.44728491 0
0.13655937 0.71245611 0.51783001 0
0.11791828 0.7171675 0.54047775 0
0.21896096 0.69677711 0.41722372 0
0.19640081 0.70184529 0.44464651 0
0.15348633 0.7119956 0.49752524 0
0.13007593 0.71662337 0.5246827 0
0.1144386 0.71895635 0.54453057 0
0.093698174 0.72296059 0.57005727 0
0.26246566 0.6899209 0.36296362 0
0.25159755 0.69272375 0.37686175 0
0.24007413 0.69493926 0.39025813 0
0.19094664 0.70453227 0.45114905 0
0.19631267 0.70595217 0.44386387 0
0.19054817 0.7062676 0.45141089 0
0.32032597 0.68168974 0.29211277 0
0.31477118 0.68245399 0.29975188 0
0.16305041 0.71507215 0.48497784 0
0.1313137 0.72095293 0.52185106 0
0.26409096 0.69425529 0.36002356 0
0.2602123 0.69503814 0.3646481 0
0.25513124 0.69701451 0.37088001 0
0.18443452 0.71197551 0.45856726 0
0.1708079 0.71515971 0.47584516 0
0.32046291 0.68534893 0.29207906 0
0.26516008 0.69734758 0.35880202 0
0.3231712 0.68715519 0.28966939 0
0.29105464 0.69381815 0.32622319 0
0.23220111 0.70604974 0.39925858 0
0.13888057 0.72642434 0.5137977 0
0.11872096 0.73190677 0.54256046 0
0.3613914 0.68029958 0.24313132 0
0.3342697 0.68523675 0.27552217 0
0.31336594 0.68950105 0.30083546 0
0.25723284 0.70263493 0.36799163 0
0.23035239 0.70886058 0.40208548 0
0.11742943 0.73328203 0.54391152 0
0.10996663 0.73419529 0.55180287 0
0.19412985 0.71760923 0.44752669 0
0.17076451 0.72368169 0.47336835 0
0.28516382 0.70106006 0.33389723 0
0.2468781 0.70958352 0.38108668 0
0.23575017 0.71172285 0.39432475 0
0.23405366 0.71214449 0.39649558 0
0.35144573 0.68830448 0.25374827 0
0.32172924 0.69441575 0.29067999 0
0.23858881 0.71225446 0.39112493 0
0.17951588 0.72587788 0.46300027 0
0.31280258 0.6989944 0.3010931 0
0.18595748 0.72666597 0.4563846 0
0.16321084 0.73213357 0.48868966 0
0.2245492 0.72044444 0.40736681 0
0.16408037 0.73363572 0.48476997 0
0.10675685 0.720806 -0.0071061151 0
0.27597007 0.71052629 0.34607679 0
0.24697047 0.71779394 0.38078791 0
0.34378454 0.69683582 0.2633183 0
0.29811797 0.70712811 0.31780905 0
0.22084191 0.72455299 0.41309005 0
0.21938924 0.72570688 0.41437584 0
0.33126304 0.70152062 0.27786839 0
0.275823 0.71452677 0.34588426 0
0.23926714 0.72212553 0.38876227 0
0.20397666 0.73199046 0.44838855 0
0.19257602 0.73478276 0.49494234 0
0.29529947 0.71305817 0.32118684 0
0.25582457 0.72184515 0.36946234 0
0.21907975 0.73321432 0.5029819 0
0.32970732 0.70613605 0.27929828 0
0.29229319 0.71446013 0.32582802 0
0.29504991 0.71523625 0.32119465 0
0.30868471 0.71729368 0.3030954 0
0.26298878 0.7281903 0.36144665 0
0.33908713 0.71233273 0.26855195 0
0.33413875 0.72225815 0.27464506 0
0.33576244 0.72379863 0.27125886 0
0.33506575 0.72477502 0.27523884 0
0.31647351 0.72974682 0.30681226 0
0.33744913 0.73023295 0.28980559 0
0.36241072 0.72454852 0.24071769 0
0.35726205 0.73009759 0.24748091 0
0.053051792 -0.39395034 0.2818549 0
0.049418822 -0.39413443 0.24490404 0
0.05076386 -0.38224187 0.30893135 0
0.060007788 -0.38019657 0.29758772 0
0.05485443 -0.38168132 0.30462304 0
0.042021491 -0.38116419 0.31570697 0
0.048365466 -0.37538749 0.31568167 0
0.043127254 -0.37734368 0.31737566 0
0.036809057 -0.37593627 0.3222158 0
0.034252681 -0.37074295 0.32513344 0
0.05109401 -0.36861435 0.31705856 0
0.044815615 -0.3679994 0.32147375 0
0.043150522 -0.36790681 0.32250074 0
0.048960999 -0.36291397 0.32073936 0
0.068092376 -0.3587217 0.30820486 0
0.055377297 -0.35687011 0.32103553 0
0.084492773 -0.35648748 0.27740863 0
0.076104097 -0.34729353 0.31944847 0
0.077540219 -0.34521395 0.31936714 0
0.069798276 -0.34266996 0.3267028 0
0.076245606 -0.34018868 0.32364085 0
0.066788673 -0.33749235 0.3301169 0
0.071641102 -0.3357867 0.32872081 0
0.070880368 -0.33405015 0.32952875 0
0.074074134 -0.33223876 0.32824147 0
0.044441648 -0.32358319 0.33619377 0
0.064183325 -0.30927718 0.33127201 0
0.074116796 -0.30678144 0.32728255 0
0.077266492 -0.30374297 0.32468915 0
0.080911137 -0.30030102 0.31985182 0
0.075653613 -0.29838309 0.32309192 0
0.085893452 -0.28398788 0.32136911 0
0.10175716 -0.26522961 0.29693568 0
0.088347234 -0.2635968 0.3161301 0
0.064220652 -0.25373754 0.32554162 0
0.046764307 -0.24871001 0.36179453 0
0.067219682 -0.24788085 0.33500153 0
0.071957476 -0.24550821 0.3335546 0
0.084968686 -0.24573646 0.31424367 0
0.095447235 -0.2438359 0.30251116 0
0.085832566 -0.23998281 0.32285434 0
0.068846673 -0.23935975 0.34917217 0
0.055841774 -0.23713504 0.37112296 0
0.071172573 -0.23758125 0.34894109 0
0.069663994 -0.23745739 0.35196707 0
0.048853993 -0.23496582 0.3819823 0
0.10112607 -0.23679754 0.30646986 0
0.059045509 -0.23042494 0.37697482 0
0.03500811 -0.22521594 0.40531188 0
0.079042338 -0.22407822 0.36015335 0
0.032137446 -0.21620999 0.41816872 0
0.11785299 -0.2182648 0.31050476 0
0.1105161 -0.2174173 0.32195082 0
0.035741784 -0.21175537 0.41925237 0
0.080561675 -0.21355648 0.37353709 0
0.072984241 -0.21190435 0.38328165 0
0.05536475 -0.20916823 0.40468031 0
0.045354046 -0.20898592 0.41440868 0
0.069364391 -0.20786309 0.38997489 0
0.052216701 -0.20771027 0.40938133 0
0.046650946 -0.20727316 0.41449505 0
0.1110672 -0.21029437 0.32898673 0
0.035088405 -0.20372221 0.42530495 0
0.038032584 -0.20218289 0.42644796 0
0.077033259 -0.20167397 0.38829616 0
0.059267595 -0.20076661 0.40797061 0
0.052626573 -0.20158854 0.41244188 0
0.0486314 -0.2010625 0.41467339 0
0.042415775 -0.20051228 0.41849282 0
0.082777731 -0.20011353 0.38566497 0
0.034323491 -0.19742189 0.43436402 0
0.12442505 -0.20237878 0.32194394 0
0.037784629 -0.19627428 0.43260539 0
0.0634702 -0.19316141 0.40834016 0
0.033123583 -0.18856032 0.44130644 0
0.063698374 -0.18961705 0.40952453 0
0.040183872 -0.18730195 0.43832958 0
0.12071643 -0.19054563 0.33625254 0
0.03226354 -0.18539195 0.44390792 0
0.054002441 -0.18153094 0.41578239 0
0.058757581 -0.18003763 0.41509223 0
0.04028023 -0.175631 0.44612613 0
0.034306794 -0.17638625 0.44826579 0
0.063112356 -0.17604057 0.41486725 0
0.039195873 -0.17345165 0.44815072 0
0.13082887 -0.17699362 0.33444223 0
0.082292333 -0.17331375 0.4014281 0
0.061271474 -0.17277715 0.41598898 0
0.059089832 -0.17299551 0.41715381 0
0.079861656 -0.17193554 0.40384513 0
0.060611658 -0.17113563 0.4168857 0
0.039127611 -0.16510122 0.45395246 0
0.065483086 -0.16690506 0.41532096 0
0.042624556 -0.16476454 0.45109499 0
0.064753056 -0.16344681 0.41634682 0
0.042845048 -0.15624666 0.45643428 0
0.044344038 -0.15456285 0.45673093 0
0.068397999 -0.15396653 0.41601104 0
0.066824622 -0.1539773 0.41700795 0
0.04147952 -0.15121777 0.46030688 0
0.069721043 -0.15199494 0.4158985 0
0.044842474 -0.14940238 0.45932028 0
0.16166872 -0.15946358 0.26349121 0
0.071038261 -0.14704797 0.4164457 0
0.059412144 -0.14698893 0.42015222 0
0.054490119 -0.14122954 0.45445061 0
0.16011328 -0.15160404 0.26791146 0
0.075073354 -0.14342476 0.41509995 0
0.073640533 -0.1421769 0.41582426 0
0.043811075 -0.13965675 0.46560347 0
0.044944391 -0.13802433 0.46567431 0
0.069510005 -0.13766854 0.41967228 0
0.073963031 -0.13254288 0.41783243 0
0.073783889 -0.13062012 0.4179078 0
0.050599046 -0.12603083 0.4692136 0
0.16454206 -0.13869168 0.27034375 0
0.15580243 -0.13458242 0.27587277 0
0.075668164 -0.12619247 0.41750219 0
0.16223095 -0.13394637 0.27377203 0
0.079642713 -0.12369077 0.41617563 0
0.069648452 -0.1231694 0.41992551 0
0.056972161 -0.12107839 0.42287013 0
0.085091956 -0.12172401 0.41142839 0
0.078508273 -0.12094272 0.41675761 0
0.083573505 -0.11892641 0.41283265 0
0.077251688 -0.11930682 0.41677952 0
0.047322057 -0.11414675 0.47828361 0
0.17350236 -0.12649833 0.2699025 0
0.16706607 -0.12646751 0.27442411 0
0.05977647 -0.11301329 0.4689846 0
0.052969627 -0.11216198 0.47670099 0
0.17045766 -0.12309697 0.27287176 0
0.080490552 -0.11544105 0.41495517 0
0.052244991 -0.11076025 0.47797614 0
0.073407188 -0.10440288 0.4185932 0
0.054162838 -0.10036442 0.4818778 0
0.0554078 -0.10008094 0.48055875 0
0.090192705 -0.103781 0.40841612 0
0.072636403 -0.10277174 0.41925752 0
0.069073409 -0.10137557 0.42078209 0
0.080274224 -0.09960822 0.41548046 0
0.17486235 -0.10702261 0.27634978 0
0.1651216 -0.10798985 0.27978027 0
0.081588522 -0.09909907 0.41470614 0
0.069324128 -0.097457096 0.42094129 0
0.17598461 -0.10530842 0.27634853 0
0.070367917 -0.095823899 0.42076039 0
0.17869294 -0.103608 0.27503327 0
0.13053708 -0.098349005 0.36231446 0
0.071200475 -0.094193585 0.42051131 0
0.17792015 -0.10210683 0.27621889 0
0.075460315 -0.092534795 0.41859052 0
0.072189689 -0.092527404 0.42055303 0
0.074554466 -0.090897143 0.41906062 0
0.066519089 -0.089442872 0.42229629 0
0.058390222 -0.089720473 0.42450184 0
0.094487019 -0.088577636 0.40739807 0
0.080463961 -0.089232087 0.41607884 0
0.18634292 -0.09572155 0.2725741 0
0.18473068 -0.096112207 0.27378443 0
0.075684406 -0.086009935 0.41899052 0
0.072930522 -0.085533343 0.42144293 0
0.17685691 -0.093731716 0.27893305 0
0.087960973 -0.085664675 0.41229388 0
0.070791647 -0.084333867 0.42135906 0
0.18879125 -0.093182802 0.27146164 0
0.077136017 -0.082741335 0.41834337 0
0.075570665 -0.082757421 0.41915119 0
0.079889819 -0.081099898 0.41735259 0
0.069973715 -0.080851644 0.42172405 0
0.17983049 -0.088618726 0.2787599 0
0.099023759 -0.079358704 0.40430021 0
0.07675337 -0.077871569 0.41918835 0
0.0802062 -0.073774762 0.41750661 0
0.06016954 -0.070081174 0.49396414 0
0.075620532 -0.069559485 0.41967142 0
0.074922271 -0.071186028 0.42026567 0
0.066314593 -0.06924215 0.4236142 0
0.061997429 -0.066445604 0.49360904 0
0.07814984 -0.067919612 0.41847375 0
0.07480406 -0.067947976 0.42007339 0
0.18498175 -0.077301234 0.28036347 0
0.089439265 -0.065940663 0.41255239 0
0.079820275 -0.06321165 0.41783547 0
0.073891297 -0.060022663 0.4218263 0
0.18802452 -0.066717394 0.28137782 0
0.17942654 -0.067010127 0.28467008 0
0.083729334 -0.056704398 0.41643429 0
0.075025663 -0.056758035 0.42029548 0
0.1910606 -0.064590685 0.28072017 0
0.060098663 -0.048682339 0.50078326 0
0.094816424 -0.052997164 0.41019604 0
0.077676684 -0.051883481 0.41917625 0
0.092193 -0.048467174 0.41229695 0
0.088533781 -0.04900676 0.41426304 0
0.086849719 -0.049018644 0.41511047 0
0.081709355 -0.047922272 0.41788775 0
0.067588918 -0.048521128 0.42275229 0
0.089635916 -0.047753096 0.41335899 0
0.19785781 -0.05547623 0.27958038 0
0.19465402 -0.054381177 0.28148666 0
0.15396436 -0.051364202 0.28768018 0
0.090247363 -0.041877422 0.41350603 0
0.0580438 -0.030270245 0.49684212 0
0.075301468 -0.032358442 0.42083874 0
0.20203567 -0.039980609 0.28157961 0
0.20359272 -0.039967589 0.28056785 0
0.055617392 -0.023806166 0.497076 0
0.093918771 -0.027570203 0.41285658 0
0.050359778 -0.020616259 0.49881831 0
0.15009305 -0.034591489 0.28083947 0
0.092766762 -0.025650073 0.41366249 0
0.20096795 -0.033379752 0.28351256 0
0.083689585 -0.022509862 0.41870421 0
0.15369436 -0.030889809 0.28399393 0
0.077950791 -0.019599309 0.4207218 0
0.20928591 -0.029530894 0.2794126 0
0.085457996 -0.019251877 0.41820267 0
0.050310276 -0.014252115 0.49709222 0
0.15472019 -0.02637535 0.28408304 0
0.076013938 -0.016269444 0.42175665 0
0.10478644 -0.016963914 0.40611854 0
0.090928257 -0.012826205 0.41641697 0
0.087312564 -0.012840879 0.41830832 0
0.074689917 -0.013059182 0.4230473 0
0.070794873 -0.012808711 0.42464498 0
0.046701968 -0.0074271196 0.49797183 0
0.06667427 -0.0099162087 0.42621207 0
0.047580846 -0.0057984875 0.49729913 0
0.20183702 -0.019718124 0.28355545 0
0.20431238 -0.01660303 0.28235132 0
0.2063055 -0.013553359 0.28094906 0
0.07870587 -0.0027865358 0.42416486 0
0.086177997 -0.00088062137 0.42070782 0
0.05634813 0.0047138808 0.4877612 0
0.084369801 0.00055904174 0.42120489 0
0.078786045 0.002244343 0.42497912 0
0.078013107 0.003852447 0.42558944 0
0.072462417 0.0037877033 0.42795178 0
0.078886509 0.0087254411 0.42594594 0
0.077104867 0.0086832345 0.42682788 0
0.19768186 0.0024823127 0.27895424 0
0.14422473 0.012413421 0.35717919 0
0.079457983 0.020650636 0.4280028 0
0.041937277 0.024015285 0.4935295 0
0.046009943 0.026865413 0.48937556 0
0.044733539 0.026844997 0.49087241 0
0.20238385 0.010307848 0.27447098 0
0.072587483 0.024756353 0.43185079 0
0.18340749 0.015560227 0.27754024 0
0.04568208 0.033262268 0.48840138 0
0.076668866 0.031035356 0.43072566 0
0.2063297 0.019126097 0.26797178 0
0.066598043 0.032827012 0.43489495 0
0.052515283 0.040147122 0.47647175 0
0.068134531 0.038336419 0.43521893 0
0.20220262 0.028826121 0.26566616 0
0.068191104 0.044828393 0.43535733 0
0.17821312 0.034492303 0.26951712 0
0.066589788 0.048042551 0.43634477 0
0.2009813 0.035993297 0.26292056 0
0.074290693 0.049698863 0.43320018 0
0.19974394 0.037859295 0.26269776 0
0.078070283 0.052969847 0.43165064 0
0.075403132 0.051301122 0.43278125 0
0.075345948 0.054555003 0.43280515 0
0.068249419 0.054520458 0.43593195 0
0.082688056 0.055261958 0.42906845 0
0.040681683 0.060714509 0.4793644 0
0.073738322 0.057789657 0.43369061 0
0.06949167 0.05938879 0.43552932 0
0.079483047 0.059462443 0.43138716 0
0.071957424 0.064273588 0.43447754 0
0.070091456 0.064242914 0.43491858 0
0.064879611 0.064207897 0.43711913 0
0.066613071 0.064218618 0.43653703 0
0.12408781 0.061836585 0.38655105 0
0.072596684 0.065878831 0.43431726 0
0.076673731 0.067513473 0.43221804 0
0.028571092 0.073540218 0.4834564 0
0.19546193 0.055678453 0.2556254 0
0.075003058 0.070728488 0.43315345 0
0.065866962 0.070690222 0.4367016 0
0.076315023 0.073991589 0.43261427 0
0.074600205 0.073978096 0.43333411 0
0.072896555 0.073967025 0.43411687 0
0.071276836 0.073945045 0.43470144 0
0.19076853 0.060701229 0.2546097 0
0.076486096 0.077207625 0.43268508 0
0.078353435 0.080435589 0.43217623 0
0.18704459 0.070043676 0.2519592 0
0.066990003 0.085145667 0.43730932 0
0.081821635 0.086881779 0.43132329 0
0.081083901 0.08847864 0.43197617 0
0.031099364 0.093208514 0.4708032 0
0.18322308 0.075585335 0.25043625 0
0.060577922 0.091340221 0.43990228 0
0.043998152 0.092316709 0.44257241 0
0.18806462 0.07787434 0.24701087 0
0.080915719 0.091706261 0.43240669 0
0.073730841 0.093051165 0.43560082 0
0.18187541 0.079188749 0.24847005 0
0.085220873 0.093354329 0.4305453 0
0.08817336 0.095570974 0.42923152 0
0.082726523 0.094949625 0.43192768 0
0.081058592 0.094926029 0.43284091 0
0.076591119 0.096515052 0.43461767 0
0.075622931 0.09628778 0.43516564 0
0.065227494 0.096189775 0.43861637 0
0.066074163 0.09779001 0.43846619 0
0.030298635 0.099488407 0.46677953 0
0.090285935 0.09746173 0.42836708 0
0.049275242 0.099219903 0.44285351 0
0.074035093 0.099495798 0.43611896 0
0.09028741 0.10068685 0.42874926 0
0.18072563 0.088507377 0.24219054 0
0.081769556 0.10363304 0.43331352 0
0.02962973 0.10701758 0.4456957 0
0.098356992 0.10526459 0.42479616 0
0.096739933 0.1052509 0.42580774 0
0.071580239 0.10677834 0.43745956 0
0.029429853 0.10879508 0.44586369 0
0.089144729 0.10934571 0.4300648 0
0.078486525 0.11008524 0.43526852 0
0.028481618 0.11370472 0.44764653 0
0.062385768 0.11330505 0.44014344 0
0.09542425 0.11454582 0.42758238 0
0.091958649 0.11483015 0.42915496 0
0.078477807 0.11648914 0.43495497 0
0.17359015 0.10300742 0.23800218 0
0.10667175 0.1164543 0.4205026 0
0.09626133 0.11646608 0.42713562 0
0.0097949877 0.12292662 0.47521678 0
0.092877723 0.11981544 0.42902759 0
0.093792252 0.11808038 0.42848355 0
0.079754829 0.11976994 0.43470427 0
0.082479581 0.11974216 0.43389538 0
0.011749223 0.1261483 0.47500578 0
0.078085385 0.1229829 0.43530062 0
0.012712039 0.12778102 0.47452986 0
0.18639545 0.10716083 0.22793975 0
0.094547644 0.123059 0.42823845 0
0.077198915 0.12459191 0.43562952 0
0.088647753 0.12462872 0.43085817 0
0.029904991 0.12978666 0.4429791 0
0.085207701 0.12782878 0.43230024 0
0.17653748 0.11333483 0.23105663 0
0.093684368 0.12789722 0.42856315 0
0.076229304 0.12939551 0.43563074 0
0.071732096 0.13097075 0.43673384 0
0.18118939 0.1167407 0.22492726 0
0.085897885 0.13269417 0.43161526 0
0.025612816 0.13888781 0.4560335 0
0.14413396 0.12908244 0.36955813 0
0.10801648 0.13414557 0.41854209 0
0.099121884 0.13497332 0.42447427 0
0.090878874 0.13539982 0.42917013 0
0.13714102 0.13069007 0.37164593 0
0.096810073 0.13722079 0.42555264 0
0.072404593 0.13901906 0.43523526 0
0.094534039 0.13963832 0.42652816 0
0.028316207 0.14356996 0.45504397 0
0.10632066 0.14050916 0.41860905 0
0.074493043 0.1424873 0.43431783 0
0.072485574 0.14244315 0.43439177 0
0.17882705 0.12731999 0.21791579 0
0.17355508 0.12814595 0.22139849 0
0.14403509 0.13633528 0.36796391 0
0.11920395 0.1396919 0.4082391 0
0.068005838 0.14402036 0.43567461 0
0.067054123 0.14563896 0.43580437 0
0.10166252 0.1442645 0.42111388 0
0.040476307 0.14977697 0.4372043 0
0.14688545 0.14264101 0.36516166 0
0.13910094 0.14375167 0.36807457 0
0.040520474 0.15185805 0.43701023 0
0.027920879 0.15574737 0.45514548 0
0.017247684 0.15607451 0.45755404 0
0.012932569 0.15673932 0.46442115 0
0.12517713 0.15194339 0.39611298 0
0.12395956 0.15562165 0.39959636 0
0.11084643 0.15693688 0.42028043 0
0.12448309 0.15863055 0.45885351 0
0.0065438226 0.16612335 0.47365272 0
0.12563945 0.16005488 0.46128273 0
0.17663607 0.15146764 0.2851654 0
0.21279594 0.1526016 0.36549139 0
0.19815543 0.15326956 0.37635109 0
0.19467717 0.15450208 0.37672472 0
0.16364224 0.15925087 0.41529077 0
0.0072765946 0.17231891 0.47037601 0
0.00020743906 0.17366143 0.47825295 0
0.21802504 0.15654725 0.36155808 0
0.21403468 0.15918127 0.36519316 0
0.0048638061 0.17942221 0.47317761 0
0.21705179 0.16082825 0.36440673 0
0.21683185 0.16435328 0.36524338 0
0.0085859895 0.18247226 0.46311849 0
0.0024671443 0.18227309 0.47378078 0
0.23769258 0.1637103 0.36105204 0
0.0020981953 0.18543552 0.4749243 0
0.21926545 0.16649106 0.36420691 0
0.22020394 0.1681412 0.36397034 0
0.21756604 0.17016692 0.3654708 0
0.0031501427 0.1881036 0.46473706 0
0.0015491806 0.18943353 0.47511047 0
0.0055429898 0.19300474 0.46203217 0
0.0035919584 0.19357961 0.46981573 0
0.21400365 0.17820998 0.36930144 0
0.0058264993 0.19715111 0.46844801 0
0.21832988 0.17976689 0.36766598 0
0.0070846081 0.19865398 0.46378696 0
0.20186883 0.18339735 0.38109484 0
0.0068010464 0.20137501 0.47826248 0
0.12230703 0.19431263 0.48039681 0
0.0086304024 0.20206685 0.46487629 0
0.0072803311 0.20318791 0.46683085 0
0.0089606531 0.20361784 0.46547851 0
0.0098824687 0.20502539 0.47836596 0
0.21714064 0.18662117 0.36899102 0
0.012329686 0.20633782 0.46126357 0
0.01367468 0.20958161 0.46314317 0
0.014432676 0.21224657 0.46693635 0
0.015344776 0.21193676 0.47577322 0
0.014607441 0.21495882 0.47722122 0
0.017740332 0.21772417 0.46870598 0
0.21999775 0.20023687 0.36999848 0
0.21347716 0.20037618 0.37312391 0
0.24069366 0.20016184 0.37040266 0
0.21777055 0.20183432 0.37172809 0
0.21799256 0.20505854 0.37187919 0
0.21598341 0.20839141 0.37289205 0
0.024458285 0.22729227 0.47522008 0
0.028276417 0.2300013 0.47024888 0
0.21975291 0.2150166 0.37308368 0
0.21620433 0.21497594 0.37463617 0
0.24205863 0.21508949 0.37290016 0
0.21563573 0.21984138 0.37556371 0
0.030434985 0.23927931 0.47030011 0
0.22011878 0.22148362 0.37395993 0
0.2176594 0.22298616 0.37569898 0
0.21517658 0.22459263 0.37746421 0
0.21815179 0.22810835 0.37618831 0
0.21612388 0.23876223 0.38113025 0
0.15642487 0.24674873 0.45267019 0
0.21802494 0.24051426 0.38041106 0
0.13170508 0.25652513 0.48634151 0
0.068803906 0.26105767 0.48409197 0
0.22067761 0.24648999 0.38089454 0
0.21552959 0.24532577 0.38371676 0
0.13407472 0.26361918 0.4866136 0
0.07775712 0.26859584 0.48320571 0
0.21941444 0.25570118 0.38345474 0
0.102382 0.27722842 0.48625007 0
0.32691216 0.24986057 0.26603377 0
0.13444358 0.28546083 0.48802903 0
0.13924532 0.28906286 0.4874737 0
0.11365397 0.29260936 0.48816913 0
0.10602807 0.29423827 0.50936365 0
0.099158846 0.29546401 0.52050424 0
0.21393093 0.28210849 0.39728388 0
0.21198353 0.28419173 0.3997837 0
0.22800015 0.28544223 0.39544046 0
0.11391355 0.30107096 0.51647729 0
0.11030396 0.30238351 0.51939589 0
0.20810068 0.29483926 0.41446531 0
0.18822622 0.29705179 0.43823257 0
0.17149793 0.30000538 0.46126255 0
0.12982903 0.3061029 0.5082801 0
0.11386761 0.30792972 0.51940066 0
0.20350213 0.29800236 0.42409033 0
0.13959455 0.31876373 0.51027787 0
0.094130829 0.33257893 0.56487536 0
0.28822467 0.30763602 0.32640216 0
0.28523323 0.31336805 0.33190396 0
0.25201476 0.31729317 0.36903694 0
0.10755678 0.34605986 0.5481869 0
0.17323339 0.34423774 0.46755588 0
0.29180115 0.32712278 0.32343876 0
0.095247567 0.3567701 0.56251109 0
0.26480278 0.3357594 0.35599604 0
0.095313057 0.36575076 0.56092793 0
0.27123609 0.34689558 0.34732717 0
0.31031898 0.34631655 0.29995072 0
0.20901451 0.36370954 0.42262873 0
0.18632065 0.3740401 0.44968507 0
0.25824299 0.38058504 0.36211705 0
0.10047029 0.40745825 0.55455095 0
0.30974141 0.3781698 0.29889971 0
0.30826089 0.37905329 0.30010954 0
0.24934226 0.39004439 0.37219939 0
0.10149264 0.41675451 0.58010948 0
0.16524348 0.4094252 0.48145017 0
0.14006206 0.41688728 0.53274453 0
0.22724438 0.40378815 0.39591092 0
0.18237765 0.41119239 0.47001764 0
0.20994827 0.40972465 0.44590604 0
0.23017502 0.40853736 0.41979948 0
0.25139615 0.40447611 0.36848876 0
0.24002989 0.4069601 0.38500172 0
0.23676653 0.4067595 0.38741168 0
0.25532871 0.40686345 0.37658295 0
0.15981939 0.42358813 0.50898194 0
0.28600094 0.4044891 0.34756076 0
0.27747121 0.40580276 0.35894242 0
0.30103618 0.40334225 0.31241819 0
0.098580137 0.43883067 0.58260316 0
0.098191902 0.44339645 0.58303475 0
0.35418966 0.40409559 0.27098536 0
0.3549293 0.40797758 0.27091283 0
0.16133675 0.44149926 0.50510532 0
0.098774098 0.45460385 0.58214474 0
0.13495341 0.45747477 0.53696936 0
0.28413928 0.43282807 0.35411885 0
0.27031827 0.43655947 0.37219331 0
0.334674 0.42687279 0.29477584 0
0.23280242 0.44366491 0.41731393 0
0.11743741 0.47134227 0.55745983 0
0.13565308 0.47588405 0.53449321 0
0.13340092 0.47665313 0.53711009 0
0.097160906 0.51045483 0.58030403 0
0.23991802 0.49485952 0.40393293 0
0.19260073 0.50400579 0.46168235 0
0.12340376 0.52431166 0.54611415 0
0.16434577 0.52043128 0.49557853 0
0.34026653 0.49070263 0.28192905 0
0.1818651 0.51952106 0.47402439 0
0.33513588 0.49887273 0.28813541 0
0.18997687 0.52574909 0.46301651 0
0.21557808 0.52310687 0.43230408 0
0.21105248 0.53411001 0.43749291 0
0.14365053 0.54875082 0.51925457 0
0.16335344 0.54763335 0.49471825 0
0.13414545 0.55411166 0.53009707 0
0.14679453 0.56956905 0.51379204 0
0.26507714 0.54789251 0.36959964 0
0.17025109 0.56699127 0.48488939 0
0.094853878 0.57998943 0.57572842 0
0.26202267 0.55039424 0.37328804 0
0.20290554 0.56391686 0.44494313 0
0.1556716 0.57267958 0.50299925 0
0.31772968 0.54535967 0.30487442 0
0.20476462 0.56559181 0.44187549 0
0.16504875 0.57627058 0.49046832 0
0.12153211 0.58385074 0.54421896 0
0.17589842 0.576123 0.47722086 0
0.15390217 0.57882375 0.50570202 0
0.34336314 0.54530615 0.27374095 0
0.11715246 0.59514165 0.54971421 0
0.095521398 0.60173249 0.57569879 0
0.26444775 0.57161021 0.3690778 0
0.11404788 0.60052866 0.55269915 0
0.29665813 0.57314211 0.3290098 0
0.21422845 0.5930953 0.42922142 0
0.32468951 0.57391971 0.294229 0
0.20685883 0.59651506 0.4384422 0
0.31242025 0.5783695 0.31074333 0
0.2519381 0.59059376 0.38273817 0
0.19396493 0.60043651 0.45432228 0
0.17255799 0.6074701 0.48023272 0
0.092555016 0.62201893 0.57756788 0
0.36203256 0.57473963 0.24978398 0
0.30085027 0.58575332 0.32387337 0
0.12941283 0.62064475 0.53317124 0
0.3424069 0.58062083 0.27387002 0
0.17063627 0.61447108 0.48240867 0
0.14107256 0.61980188 0.51850981 0
0.36072856 0.57777441 0.25091967 0
0.28397575 0.59553266 0.34330642 0
0.26320684 0.59996033 0.36718839 0
0.24091892 0.60690051 0.39499846 0
0.12719826 0.63231766 0.53491724 0
0.13978145 0.63118285 0.51953071 0
0.18804927 0.63530028 0.45910451 0
0.11562729 0.65122175 0.54849774 0
0.31069383 0.61690784 0.31073219 0
0.29870519 0.61870158 0.32466498 0
0.25606024 0.62782186 0.37546495 0
0.27234828 0.62613022 0.35517171 0
0.17816229 0.64490908 0.46940917 0
0.17819145 0.64638209 0.47078475 0
0.12588768 0.65545708 0.5345521 0
0.1251699 0.6702773 0.53529459 0
0.10629399 0.67548949 0.55774438 0
0.21661305 0.65760547 0.42257121 0
0.097365476 0.68078518 0.56774199 0
0.17119822 0.6708222 0.47773838 0
0.16877845 0.67097574 0.48081994 0
0.33962873 0.63830024 0.27237549 0
0.17385954 0.67203873 0.47369146 0
0.36404401 0.63550502 0.24237789 0
0.16365406 0.67592418 0.48768511 0
0.25717086 0.66088837 0.37166277 0
0.35575792 0.64328444 0.25202718 0
0.24762596 0.66632062 0.38385776 0
0.20311385 0.675017 0.4377318 0
0.16064024 0.6839965 0.49041799 0
0.21256529 0.67527843 0.42716822 0
0.1221645 0.69710547 0.53660619 0
0.12206052 0.69709176 0.5366717 0
0.19156606 0.68323952 0.45114586 0
0.22781745 0.67762411 0.4071587 0
0.13976742 0.69733727 0.51367033 0
0.17259009 0.69103515 0.47524273 0
0.27618062 0.67330539 0.34695125 0
0.19009554 0.69124246 0.45290732 0
0.152987 0.69885093 0.49891528 0
0.19036646 0.69129825 0.45271546 0
0.095839426 0.7116614 0.56796241 0
0.15434177 0.70344377 0.49580345 0
0.32007843 0.67031837 0.29358253 0
0.16711693 0.70323306 0.48066524 0
0.15147893 0.70915109 0.49845025 0
0.089231372 0.71345347 -0.024444927 0
0.181273 0.70740449 0.46295223 0
0.29786146 0.68499273 0.31855384 0
0.18214917 0.70999062 0.4609344 0
0.25178146 0.7002179 0.37510103 0
0.21280712 0.70856559 0.42272547 0
0.1331894 0.72559237 0.52041107 0
0.17782035 0.72007489 0.46593246 0
0.28570235 0.69860226 0.33386698 0
0.24867767 0.70736349 0.38032138 0
0.23228812 0.70986432 0.39960828 0
0.21864295 0.71463263 0.41546687 0
0.12136526 0.73419738 0.54655719 0
0.21828333 0.71636111 0.41614431 0
0.21597624 0.71538043 0.41918668 0
0.15788336 0.72812843 0.4903312 0
0.28720221 0.70519465 0.33084685 0
0.28339177 0.70611 0.33844051 0
0.18361717 0.72665268 0.45925835 0
0.20283429 0.72589225 0.43466207 0
0.17912982 0.73066342 0.46665478 0
0.18420869 0.73104221 0.48129302 0
0.22593179 0.72407126 0.40807199 0
0.20222609 0.73168719 0.45380506 0
0.18895456 0.73436362 0.4682698 0
0.23971294 0.72651613 0.39512134 0
0.29564354 0.71878362 0.32143393 0
0.32074496 0.72299349 0.29105881 0
0.28734091 0.73042482 0.35720077 0
0.28565735 0.72999763 0.35944927 0
0.30726698 0.72837675 0.33249334 0
0.31273416 0.72806364 0.31930992 0
0.29810664 0.7322883 0.36760455 0
0.31754196 0.72998482 0.30502972 0
0.30014199 0.73355895 0.37007585 0
0.35329175 0.7232725 0.25014079 0
0.34508777 0.73081321 0.2789554 0
0.33750135 0.73282111 0.29363376 0
0.3742013 0.73385775 0.26948121 0
0.032348625 -0.38921809 0.31371009 0
0.038778767 -0.38120764 0.31813735 0
0.031480394 -0.36899531 0.3271504 0
0.050873592 -0.36559236 0.31834531 0
0.046912424 -0.35945517 0.32289961 0
0.06089519 -0.35943508 0.31271765 0
0.04773961 -0.35590115 0.32396966 0
0.047474161 -0.35586619 0.32402533 0
0.046949379 -0.35406941 0.32551086 0
0.025862344 -0.35436437 0.33165458 0
0.072111279 -0.34862626 0.32129192 0
0.027095631 -0.34922913 0.33267763 0
0.064857081 -0.34526145 0.32757896 0
0.06646657 -0.34442949 0.32700387 0
0.059807904 -0.34481588 0.32934123 0
0.065201476 -0.34098306 0.32926223 0
0.051140457 -0.34302321 0.33182588 0
0.065997578 -0.33579013 0.33090132 0
0.056596987 -0.3299787 0.33469465 0
0.04653322 -0.3300494 0.33621159 0
0.035915256 -0.32853016 0.33740768 0
0.040489614 -0.32686076 0.33701867 0
0.037767068 -0.3253372 0.33684713 0
0.041327596 -0.32523778 0.33706862 0
0.071886852 -0.31775558 0.32995313 0
0.053815097 -0.31726986 0.33369207 0
0.043571338 -0.31577054 0.33442006 0
0.062784411 -0.31252646 0.33188736 0
0.047131963 -0.31253967 0.33334765 0
0.055691302 -0.31096795 0.33241653 0
0.062349953 -0.30930299 0.33133453 0
0.062087588 -0.30605164 0.33051214 0
0.073673382 -0.29530209 0.32209575 0
0.071032189 -0.29362741 0.3231549 0
0.010263748 -0.29118419 0.31070429 0
0.0084043592 -0.2911945 0.31111306 0
0.082748249 -0.28713188 0.32369065 0
-0.00018589199 -0.28962854 0.31195498 0
0.083948433 -0.28398249 0.32198712 0
0.008947745 -0.28627348 0.31033602 0
0.018562801 -0.28301418 0.30887654 0
0.083935931 -0.27726975 0.32225707 0
0.082908005 -0.27561906 0.32275778 0
0.087053627 -0.27200565 0.32057241 0
0.086546808 -0.2703416 0.32112092 0
0.045295611 -0.27072009 0.31153989 0
0.085858047 -0.26354301 0.31861374 0
0.072903603 -0.25405407 0.31804815 0
0.027562886 -0.24645557 0.37784865 0
0.051589079 -0.2447243 0.36298528 0
0.061251402 -0.24335472 0.35457253 0
0.038456172 -0.24170521 0.38017869 0
0.084610477 -0.24215294 0.3188355 0
0.081101291 -0.24163698 0.32501671 0
0.038258247 -0.23843774 0.38511598 0
0.090195239 -0.23803528 0.31891227 0
0.083385997 -0.23603126 0.3314417 0
0.091230899 -0.23601143 0.3220759 0
0.042785831 -0.23136415 0.39281985 0
0.051869124 -0.22942337 0.38631907 0
0.11981221 -0.22469147 0.29645592 0
0.027102746 -0.21965547 0.41646576 0
0.081498601 -0.20672691 0.37934819 0
0.030394055 -0.19882502 0.43478954 0
0.0238083 -0.19941507 0.4374994 0
0.049328618 -0.1991172 0.41445756 0
0.029964551 -0.19510718 0.43835893 0
0.027710266 -0.1944658 0.4391869 0
0.11146162 -0.19495122 0.34307194 0
0.066289246 -0.1879385 0.40825188 0
0.035086013 -0.1823592 0.4442583 0
0.033410445 -0.17218459 0.45163566 0
0.036584944 -0.16905563 0.45214799 0
0.065870523 -0.1599452 0.41604286 0
0.073160164 -0.15512902 0.41297516 0
0.12721434 -0.15742783 0.34757501 0
0.064278446 -0.14900783 0.41898793 0
0.046575554 -0.14779133 0.45928478 0
0.067126118 -0.14732663 0.41799572 0
0.061272293 -0.14547297 0.4205462 0
0.037315607 -0.14288794 0.46645352 0
0.065365896 -0.14132938 0.42014661 0
0.16499057 -0.14079794 0.26943594 0
0.067100503 -0.12423903 0.42097023 0
0.048527956 -0.11739063 0.47602063 0
0.1649593 -0.11469615 0.27793762 0
0.17070903 -0.11465459 0.27587357 0
0.16415073 -0.11303476 0.27837035 0
0.07185284 -0.10441368 0.41949895 0
0.16396599 -0.10968179 0.27904883 0
0.16280514 -0.10967841 0.28044206 0
0.049787112 -0.098912559 0.48503768 0
0.17247809 -0.10214566 0.27840361 0
0.054479383 -0.092653058 0.48610035 0
0.073668212 -0.092553928 0.41929445 0
0.062284045 -0.090847306 0.42279506 0
0.056706235 -0.089142412 0.48681211 0
0.066506431 -0.085831188 0.42361194 0
0.067267276 -0.085807435 0.42240721 0
0.067346334 -0.082493067 0.42270806 0
0.1816425 -0.083388202 0.27956173 0
0.1788646 -0.081717536 0.28064281 0
0.052067593 -0.071328819 0.4970535 0
0.06290064 -0.072229169 0.42302984 0
0.18293242 -0.07731805 0.280779 0
0.18277413 -0.075653963 0.28093871 0
0.073509909 -0.069062799 0.42108181 0
0.057741992 -0.060871951 0.49863264 0
0.18502854 -0.068634652 0.28179955 0
0.1871914 -0.065060392 0.28197998 0
0.077707574 -0.058370523 0.41909361 0
0.066926658 -0.058572341 0.4228549 0
0.069690146 -0.057016604 0.42207319 0
0.082865149 -0.055086445 0.41699082 0
0.067108035 -0.055301346 0.42285141 0
0.19050089 -0.059502866 0.28220227 0
0.16789001 -0.056998894 0.2812154 0
0.16727623 -0.058629028 0.28201547 0
0.071245648 -0.051832829 0.42101148 0
0.077679642 -0.048644289 0.41935429 0
0.072249904 -0.050168894 0.42102 0
0.16377816 -0.054683127 0.28095943 0
0.084498532 -0.047406066 0.4166128 0
0.16485399 -0.05272292 0.28359061 0
0.19245131 -0.050738405 0.28314561 0
0.16482954 -0.050165311 0.28166533 0
0.056066975 -0.038047042 0.50037545 0
0.072557397 -0.04038706 0.42056984 0
0.19289628 -0.04533441 0.28413203 0
0.088267297 -0.03736696 0.41509104 0
0.053887278 -0.034938604 0.50084013 0
0.1962596 -0.043326534 0.283277 0
0.071107268 -0.036407534 0.42159864 0
0.053003557 -0.033378158 0.500929 0
0.088413283 -0.034059819 0.41540399 0
0.079048067 -0.033918653 0.41900092 0
0.081392609 -0.032274637 0.4184128 0
0.19463223 -0.036734432 0.28466263 0
0.049566746 -0.027047407 0.50135326 0
0.19800738 -0.035065524 0.28402725 0
0.088921145 -0.028907984 0.41546896 0
0.085634701 -0.028932141 0.41723177 0
0.083172031 -0.029069399 0.41809934 0
0.079120725 -0.027489223 0.42024732 0
0.050173767 -0.025446864 0.50053233 0
0.088104121 -0.02729528 0.41596192 0
0.082655355 -0.024136588 0.41871402 0
0.19669253 -0.030079512 0.2845819 0
0.082788244 -0.020991709 0.41915447 0
0.043636017 -0.016544154 0.50079006 0
0.044408143 -0.015018372 0.50003302 0
0.086015716 -0.017721459 0.41762361 0
0.048674598 -0.01426561 0.49788606 0
0.086305536 -0.01446641 0.41841081 0
0.073658176 -0.014685027 0.42304212 0
0.072687671 -0.0095573599 0.42421874 0
0.044986501 -0.0073403986 0.49859554 0
0.040994234 -0.0058564227 0.49986884 0
0.19520476 -0.013622962 0.28362638 0
0.078057602 -0.0060221562 0.42349672 0
0.064715639 -0.0067342366 0.42659953 0
0.071729399 -0.0050518578 0.42571962 0
0.072915256 -0.0034190943 0.42605171 0
0.060803577 0.000425037 0.42982683 0
0.036371917 0.002863986 0.4992983 0
0.063885316 0.0021279072 0.42985746 0
0.055422761 0.0020385035 0.43271732 0
0.20432189 -0.0048920959 0.27855787 0
0.044809677 0.0050629568 0.49624932 0
0.20104617 -0.0032505579 0.27934682 0
0.044648051 0.0082307728 0.49581379 0
0.036995493 0.0074930438 0.49837476 0
0.20134962 0.0025050556 0.27718818 0
0.081550822 0.0096102702 0.42532909 0
0.069166504 0.010250879 0.43034598 0
0.063500218 0.011480193 0.43193111 0
0.040726557 0.014606465 0.49647167 0
0.061068438 0.013065487 0.43302256 0
0.20275575 0.0069045527 0.2750701 0
0.063634478 0.014665235 0.43265256 0
0.063382685 0.016265862 0.4335967 0
0.06217169 0.014668008 0.43322185 0
0.041138917 0.019375689 0.49493861 0
0.042799622 0.019391643 0.4944725 0
0.039469838 0.02253403 0.49548015 0
0.058318183 0.02146226 0.43557006 0
0.18303739 0.017204706 0.27849501 0
0.041959167 0.026796047 0.49301922 0
0.046218291 0.031678528 0.48779827 0
0.1845414 0.023759961 0.27409372 0
0.062579378 0.032813951 0.43638986 0
0.073221877 0.035127986 0.43259099 0
0.059067972 0.035851315 0.43879038 0
0.041428171 0.037135955 0.48995724 0
0.037779368 0.03944651 0.49132308 0
0.064399362 0.038319036 0.43637586 0
