# .PCD v0.7 - Point Cloud Data file format
VERSION 0.7
FIELDS x y z intensity
SIZE 4 4 4 4
TYPE F F F F
COUNT 1 1 1 1
WIDTH 1311
HEIGHT 1
VIEWPOINT 0 0 0 1 0 0 0
POINTS 1311
DATA ascii
0.031527475 0.58334839 -0.030853866 0
0.095496424 0.59534407 0.020119719 0
0.098369226 0.59521961 0.022397403 0
0.1350213 0.60131204 0.052172627 0
0.13677567 0.6022743 0.053033959 0
0.15963797 0.6057713 0.071402185 0
0.17829983 0.60890406 0.086513512 0
0.20741931 0.61491406 0.11026388 0
0.26557612 0.62367749 0.15704669 0
0.28175971 0.62633049 0.16982979 0
0.3123059 0.632976 0.19408067 0
0.31687868 0.63397318 0.1976634 0
0.3408047 0.63736153 0.21655971 0
-0.0099252388 0.57916194 -0.064492553 0
-0.0057875887 0.57984006 -0.061464854 0
-0.0031708665 0.57973397 -0.059412125 0
-0.0019112676 0.58071715 -0.058335878 0
0.01530353 0.58305097 -0.043841936 0
0.032966066 0.5861007 -0.029925011 0
0.031838976 0.58505452 -0.031205969 0
0.067419261 0.59138322 -0.0018106834 0
0.095713973 0.5974884 0.020423733 0
0.10101086 0.59723002 0.025106488 0
0.16952199 0.60952288 0.079612918 0
0.17839687 0.61094534 0.086629488 0
0.19082476 0.61298072 0.096676096 0
0.19773765 0.61388099 0.10246135 0
0.19490154 0.61405009 0.099856861 0
0.19515194 0.61395264 0.10016149 0
0.1993833 0.61488426 0.10313894 0
0.20471552 0.61483365 0.10777377 0
0.21160895 0.61783242 0.1137894 0
0.21307397 0.61671054 0.1147166 0
0.22870304 0.62026936 0.12709162 0
0.24649748 0.62372833 0.14129825 0
0.25725704 0.62420851 0.14986266 0
0.26033998 0.62632304 0.15230262 0
0.27016795 0.62660074 0.16068794 0
0.28766152 0.63000387 0.17432347 0
0.29084173 0.63083124 0.17741895 0
-0.031487998 0.57671982 -0.081926815 0
-0.02586006 0.57831788 -0.07758145 0
-0.011161417 0.58001763 -0.065605611 0
-0.012358775 0.58092266 -0.066741191 0
-0.0071609579 0.58074826 -0.0625268 0
0.011438467 0.58428949 -0.047315199 0
0.02773837 0.5863263 -0.034085527 0
0.03294903 0.58804822 -0.029974187 0
0.036800977 0.58919179 -0.026684292 0
0.038115691 0.58839571 -0.025566006 0
0.053217236 0.59079355 -0.01317958 0
0.054699667 0.59179485 -0.012000225 0
0.061225388 0.59303463 -0.0075097084 0
0.077117071 0.59464234 0.0052242279 0
0.075534344 0.5956912 0.0042096768 0
0.092943534 0.59862 0.018161964 0
0.18360341 0.61410201 0.090254642 0
0.20222588 0.61677283 0.10550369 0
0.20920935 0.61800158 0.11137209 0
0.21204266 0.61985171 0.1137054 0
0.24122021 0.62305212 0.13691147 0
0.24661842 0.62441248 0.14101849 0
0.30150461 0.63364983 0.18498822 0
0.30976221 0.6350981 0.19167651 0
0.32004541 0.63844025 0.19969392 0
0.32134646 0.63751864 0.20105697 0
0.32282507 0.63815963 0.20249671 0
0.33233735 0.63936019 0.20964028 0
0.35209507 0.64236253 0.22527701 0
-0.025449198 0.58044392 -0.077570468 0
-0.0095448103 0.58302033 -0.06480252 0
-0.0057769716 0.58372205 -0.061428245 0
0.02530374 0.58886278 -0.036383174 0
0.03418396 0.59102416 -0.029002625 0
0.031745948 0.58898252 -0.031173909 0
0.059762407 0.59409958 -0.0085154381 0
0.070816755 0.59591359 0.00070554769 0
0.074029654 0.59694052 0.0031781446 0
0.087543763 0.59868211 0.013346479 0
0.091566108 0.59970552 0.017051229 0
0.14270322 0.60837406 0.057429511 0
0.18934652 0.6166032 0.09524475 0
0.22951725 0.62393332 0.12794995 0
0.25114194 0.62793124 0.14493951 0
0.26120022 0.63056207 0.15238866 0
0.26086122 0.63055336 0.15233281 0
0.26206875 0.62927258 0.15338245 0
0.30603111 0.63648468 0.18846057 0
0.31401354 0.63816518 0.19503622 0
0.32145312 0.63953453 0.20075288 0
0.32940894 0.64202344 0.20719208 0
0.33557308 0.6435656 0.21248066 0
-0.028430782 0.58048731 -0.079757586 0
-0.010927726 0.58407801 -0.065721601 0
0.028685924 0.59117109 -0.033656228 0
0.042195588 0.59328353 -0.022471856 0
0.044503182 0.59445029 -0.020734413 0
0.045959175 0.59328961 -0.01997575 0
0.055218749 0.59569347 -0.012321715 0
0.06399937 0.5972693 -0.0050884401 0
0.067806967 0.59760982 -0.0012976996 0
0.07411138 0.59892136 0.0031691894 0
0.090293601 0.60263574 0.015699819 0
0.13546862 0.60973698 0.051998764 0
0.1612878 0.61466628 0.072525352 0
0.16821086 0.61472994 0.078353524 0
0.17965026 0.61714751 0.087020673 0
0.17812061 0.61632997 0.086047605 0
0.229849 0.62591994 0.12780015 0
0.24149016 0.62913698 0.13689981 0
0.25677282 0.63192594 0.14931853 0
0.27830383 0.63567865 0.16609639 0
0.32124969 0.64178032 0.20105696 0
0.34464189 0.64590347 0.21899959 0
-7.0527196e-05 0.58887506 -0.057188358 0
0.0042010956 0.58798456 -0.053678304 0
0.031023845 0.59339064 -0.031607322 0
0.044576831 0.5963949 -0.020759493 0
0.051213518 0.59711093 -0.015133386 0
0.067243487 0.60053104 -0.0030476921 0
0.081251033 0.60185146 0.0086343437 0
0.08905869 0.60357755 0.014674024 0
0.095691442 0.60385543 0.019640969 0
0.1292133 0.61130774 0.046838708 0
0.16001375 0.61582565 0.07138855 0
0.20358634 0.62454164 0.10650118 0
0.2146302 0.62594622 0.11542241 0
0.22998214 0.62802637 0.12789667 0
0.24027136 0.63025808 0.13570213 0
0.24884476 0.63224477 0.1422518 0
0.33109528 0.64670825 0.20848966 0
-0.024144681 0.58529752 -0.076344296 0
-0.014654277 0.58673847 -0.069142148 0
-0.015994752 0.58742517 -0.070179649 0
0.014367312 0.59248686 -0.045092292 0
0.034067146 0.59522676 -0.029261621 0
0.042279802 0.59720695 -0.022547444 0
0.062610559 0.60017079 -0.0065026828 0
0.066127665 0.60144788 -0.0031622283 0
0.087628931 0.60475266 0.013558351 0
0.091682151 0.60545975 0.016635384 0
0.10200875 0.60723138 0.024953844 0
0.10758598 0.60893428 0.029228736 0
0.12043434 0.61103785 0.039496984 0
0.13046175 0.61226517 0.048039742 0
0.13956197 0.61468214 0.055558857 0
0.16142127 0.61888319 0.072733611 0
0.17741455 0.62054598 0.085294433 0
0.27700165 0.63897151 0.16511239 0
0.31289381 0.64577138 0.19425267 0
0.3461436 0.6511969 0.22023377 0
-0.033630058 0.58670157 -0.083208412 0
-0.024127217 0.5872553 -0.076400034 0
-0.013584383 0.5895983 -0.068049625 0
0.0058022998 0.59335542 -0.05239623 0
0.080184579 0.60651219 0.0073396862 0
0.081347913 0.60547549 0.0084374715 0
0.087610126 0.60669804 0.013580836 0
0.12162727 0.61418784 0.040692355 0
0.127909 0.61428672 0.04558415 0
0.12665372 0.61342883 0.044718616 0
0.13198428 0.61524254 0.048903104 0
0.13358304 0.61600196 0.049909882 0
0.14284518 0.61663991 0.057492234 0
0.14349997 0.61809629 0.058077116 0
0.16732588 0.62107724 0.077212974 0
0.18840505 0.62586635 0.09428966 0
0.20923924 0.62856376 0.11089749 0
0.23641251 0.63368553 0.13228303 0
0.24726951 0.63551205 0.14125201 0
0.26175809 0.63907367 0.15272826 0
0.27142704 0.63967651 0.1603357 0
0.28246057 0.64095354 0.16939555 0
0.29272133 0.64393479 0.17715831 0
0.30790889 0.64525604 0.19007391 0
0.32798877 0.64952594 0.20594697 0
0.33126569 0.65079182 0.20846379 0
-0.028021529 0.58857512 -0.079642199 0
-0.016113754 0.59175587 -0.070429713 0
0.0070939586 0.59445912 -0.051207386 0
0.022099316 0.59864885 -0.039325509 0
0.027376033 0.59828842 -0.035002541 0
0.054256219 0.60276842 -0.013445152 0
0.10261931 0.61123621 0.02494831 0
0.11897682 0.61438262 0.038632557 0
0.12794828 0.6162973 0.045589473 0
0.13395779 0.61798775 0.049922653 0
0.15893379 0.62104738 0.070473917 0
0.15754989 0.62214625 0.069483384 0
0.15789759 0.62203741 0.069299795 0
0.1629127 0.62190509 0.073946215 0
0.17471313 0.62402362 0.082963757 0
0.17743011 0.62606853 0.08537405 0
0.18020102 0.62598449 0.087403759 0
0.19252425 0.62871134 0.097199991 0
0.1997904 0.62999469 0.10307372 0
0.19986635 0.62994581 0.1031009 0
0.25018832 0.63758624 0.1433353 0
0.25911433 0.63908052 0.15039514 0
0.26874712 0.6417346 0.15766765 0
0.29386085 0.64495903 0.17817482 0
0.29513508 0.64599299 0.17939785 0
0.31171036 0.64882308 0.19296913 0
0.31300059 0.64990801 0.19427432 0
0.32191947 0.65185362 0.2009923 0
0.32626525 0.65179324 0.2044467 0
0.34202412 0.65415072 0.21660653 0
0.35397258 0.65586728 0.22614822 0
-0.012022415 0.59431887 -0.067224003 0
-0.01220534 0.59432638 -0.066926837 0
-0.00078378618 0.5966717 -0.057894293 0
0.021895997 0.59937572 -0.039178506 0
0.055802774 0.60606968 -0.012610183 0
0.069559723 0.6088528 -0.0011168099 0
0.08197251 0.60967243 0.0084228739 0
0.083907656 0.611628 0.0098886881 0
0.086443275 0.61157918 0.012313623 0
0.096486181 0.61229074 0.020321136 0
0.10924105 0.61423171 0.030150365 0
0.13070557 0.61822581 0.047848884 0
0.15812825 0.62411445 0.069187127 0
0.16998939 0.62619728 0.079555959 0
0.20564315 0.63158739 0.10765215 0
0.20925254 0.63263607 0.1106955 0
0.26719669 0.64289886 0.15657146 0
0.30349168 0.65006465 0.18648866 0
0.33088288 0.65507907 0.20737135 0
0.33187559 0.65435177 0.2092019 0
0.34960729 0.65742636 0.22240067 0
-0.027601758 0.59239364 -0.079603352 0
-0.00977166 0.59627384 -0.064776354 0
-0.0081951022 0.5971064 -0.063840196 0
0.03478732 0.60314131 -0.02942178 0
0.042896293 0.60581577 -0.022691369 0
0.051667668 0.60704255 -0.015548654 0
0.055913553 0.60810244 -0.012645206 0
0.065363184 0.60995102 -0.004526448 0
0.079205737 0.61162716 0.006251812 0
0.088107154 0.61260122 0.013491689 0
0.089774668 0.61356521 0.014783842 0
0.09255372 0.61345792 0.016868874 0
0.11650214 0.61864102 0.03644596 0
0.11676723 0.61839306 0.036050033 0
0.15515232 0.62635851 0.067223787 0
0.18030223 0.63048208 0.087238818 0
0.18566681 0.6317637 0.091660902 0
0.25356117 0.64360219 0.14590923 0
0.28860998 0.64963448 0.17377478 0
0.29674321 0.65129197 0.18049003 0
0.29928058 0.65141398 0.18308972 0
0.29808199 0.65022105 0.181711 0
0.31325561 0.65393567 0.19381043 0
0.33629441 0.6570909 0.21214913 0
0.34376228 0.65965712 0.21763708 0
-0.018562457 0.59593785 -0.07249061 0
-0.0034948774 0.59841961 -0.060084987 0
-0.002117075 0.59938174 -0.059021249 0
0.0031945147 0.59967148 -0.054436292 0
0.014945541 0.60295755 -0.045333385 0
0.025476024 0.60494357 -0.036685865 0
0.073476553 0.61210603 0.0018871867 0
0.074808761 0.61313415 0.0029864474 0
0.079201013 0.61436218 0.0061402651 0
0.088161804 0.61463362 0.01357201 0
0.097669356 0.61740994 0.021331619 0
0.096784107 0.61620152 0.019738629 0
0.10197072 0.61785859 0.024625577 0
0.10987858 0.61983973 0.030762788 0
0.23693113 0.64196962 0.13232979 0
0.25479022 0.64474756 0.14712387 0
0.26866686 0.64833075 0.15795575 0
0.30883574 0.6552971 0.19032608 0
0.30683032 0.65426517 0.18859906 0
0.32591343 0.65826303 0.20392387 0
0.330659 0.65926617 0.20744042 0
0.34549537 0.66065395 0.2189413 0
-0.0035960898 0.60033131 -0.06013266 0
0.01485841 0.60499942 -0.045114163 0
0.066645116 0.61318713 -0.0036769796 0
0.072141849 0.61509103 0.00065262622 0
0.083205231 0.61703312 0.0095163705 0
0.091462538 0.61886907 0.015625589 0
0.093000025 0.61762697 0.016820285 0
0.12851402 0.62485027 0.045775454 0
0.13622519 0.62696075 0.050998375 0
0.14734 0.62774605 0.060387231 0
0.1777195 0.63295007 0.085114844 0
0.30545905 0.65738088 0.18746921 0
0.33985439 0.66266537 0.21378738 0
0.0084079988 0.60555845 -0.050533883 0
0.027077638 0.60792994 -0.035343017 0
0.074998774 0.61709452 0.0027345419 0
0.077822529 0.61729091 0.0052117212 0
0.077356435 0.61700475 0.0052211508 0
0.085985869 0.61879587 0.011775286 0
0.095555618 0.62175965 0.018962895 0
0.10594451 0.62311709 0.027315784 0
0.10852537 0.62289321 0.029606009 0
0.11443011 0.62476152 0.033820696 0
0.12447213 0.62531805 0.042013671 0
0.14750555 0.62975633 0.060349885 0
0.15169138 0.63072729 0.06386923 0
0.16261676 0.63182735 0.072562493 0
0.18602641 0.63784933 0.091460586 0
0.18868013 0.63799506 0.094201446 0
0.2221179 0.6428526 0.12067651 0
0.22362858 0.64393651 0.1216177 0
0.23385045 0.64623159 0.12960072 0
0.25225541 0.64944828 0.14492828 0
0.2564849 0.64969647 0.14768723 0
0.28666702 0.65463382 0.17215344 0
0.29445419 0.65545154 0.17845601 0
0.29973817 0.65772176 0.18272217 0
0.31083173 0.65853196 0.19138795 0
0.32787189 0.66133565 0.20499121 0
0.33364341 0.66343701 0.20941848 0
0.35062516 0.66689479 0.22298557 0
-0.011348745 0.60409838 -0.066899098 0
-0.006027434 0.60451895 -0.06261532 0
0.0020619556 0.60628581 -0.056007016 0
0.0059423 0.60750729 -0.052756891 0
0.021832068 0.61003453 -0.039889019 0
0.024529476 0.60995942 -0.037623446 0
0.028437786 0.61085153 -0.034233168 0
0.064111888 0.61690855 -0.0061736442 0
0.075064495 0.61907095 0.0026961039 0
0.085006416 0.62182677 0.010522424 0
0.091889828 0.62264544 0.01562806 0
0.093200691 0.62169927 0.016748255 0
0.10877052 0.62485141 0.029575502 0
0.11628107 0.62596029 0.035104681 0
0.12447812 0.6275391 0.041993972 0
0.12728432 0.62765992 0.044247959 0
0.14176553 0.6308828 0.056036234 0
0.1668786 0.63574523 0.0759762 0
0.16547149 0.63483387 0.074820325 0
0.17788856 0.63696092 0.085199691 0
0.26484185 0.653579 0.15447803 0
0.27603301 0.65515423 0.16333173 0
0.28690583 0.65666437 0.17208186 0
0.30124804 0.66083926 0.18406111 0
0.32374111 0.66475564 0.20129903 0
0.35427472 0.66868013 0.22539997 0
-0.027286166 0.60348767 -0.079782061 0
-0.014853811 0.60477936 -0.06961523 0
-0.016249102 0.6038323 -0.070663415 0
-0.0017834008 0.60753322 -0.059514627 0
-0.0034919009 0.60650843 -0.060359396 0
0.0234836 0.61285281 -0.038960926 0
0.028561391 0.61288446 -0.034272611 0
0.04459402 0.61621147 -0.021647651 0
0.046287458 0.61506373 -0.020620732 0
0.055672064 0.61781991 -0.013054436 0
0.087566763 0.62375993 0.01261919 0
0.14357939 0.63361251 0.056958504 0
0.16236028 0.63596153 0.072848372 0
0.21939248 0.64734232 0.11845767 0
0.22932826 0.64918357 0.12660284 0
0.24841927 0.65262389 0.14103645 0
0.26621646 0.65455246 0.15558591 0
0.2841776 0.65961456 0.17000198 0
0.28848255 0.65990686 0.17308515 0
0.31573057 0.66535974 0.19506386 0
0.32936123 0.66681099 0.20640467 0
0.34747857 0.67090201 0.22051953 0
-0.027565446 0.6054281 -0.079800852 0
-0.018364765 0.60591984 -0.07265269 0
0.022258587 0.61384702 -0.04022732 0
0.027204882 0.61393118 -0.035395786 0
0.032212835 0.6157673 -0.031546529 0
0.0409991 0.61780095 -0.02498278 0
0.047504526 0.61788929 -0.01958858 0
0.070908003 0.62235701 -0.00067940395 0
0.12490278 0.6315468 0.041942239 0
0.15184 0.63774693 0.063911617 0
0.1601954 0.63818204 0.070422843 0
0.16722289 0.63995963 0.075951859 0
0.17250217 0.64136612 0.080531515 0
0.2191391 0.64926898 0.11844008 0
0.23101777 0.65212244 0.12755445 0
0.281059 0.6603213 0.16741565 0
0.30811748 0.66489655 0.18893428 0
0.31839636 0.66752195 0.19735777 0
0.32512006 0.66791832 0.20266384 0
0.33154237 0.66940278 0.20749328 0
0.34325531 0.67170286 0.21690379 0
0.34748071 0.67303097 0.22057714 0
-0.027816314 0.60734665 -0.079835914 0
-0.023003221 0.60693705 -0.076064207 0
-0.019891631 0.60869741 -0.073840626 0
-0.016193319 0.60777038 -0.07064794 0
-0.010614643 0.6093756 -0.066350497 0
-0.0079010762 0.6094349 -0.064329632 0
0.031023428 0.61728203 -0.032629028 0
0.034997229 0.61775273 -0.029506778 0
0.061371699 0.62345719 -0.0088776369 0
0.069356084 0.62323004 -0.00179067 0
0.10145034 0.6305626 0.023475001 0
0.11635776 0.63356835 0.03516309 0
0.15442303 0.6387381 0.065645531 0
0.16025972 0.64021057 0.070493728 0
0.17821625 0.64313918 0.08527299 0
0.20970324 0.65041918 0.11025707 0
0.22058809 0.65231109 0.11952989 0
0.24432659 0.65594065 0.13785182 0
0.2469923 0.65563202 0.14009184 0
0.25003532 0.65762508 0.14225577 0
0.25299525 0.65757811 0.14441063 0
0.25432301 0.65857059 0.1458112 0
0.25799671 0.65849578 0.14831859 0
0.26997486 0.66052955 0.15821838 0
0.29139525 0.66404992 0.1755099 0
0.29567021 0.66511691 0.17914222 0
0.29839641 0.66497898 0.18121523 0
0.028524492 0.61954993 -0.035091098 0
0.062756866 0.6242795 -0.0077061947 0
0.069609672 0.62558037 -0.0016399036 0
0.1068449 0.6327765 0.027800484 0
0.10966597 0.6344018 0.029899238 0
0.12905072 0.63643843 0.045232374 0
0.17326486 0.64523131 0.080905855 0
0.19291353 0.64937514 0.09704411 0
0.1972487 0.64960641 0.099997379 0
0.19837508 0.6486035 0.10156451 0
0.24604391 0.65886444 0.13895114 0
0.24734801 0.65766412 0.14007014 0
0.25150406 0.6586082 0.14342487 0
0.2795603 0.66451192 0.16562818 0
0.29721075 0.66812968 0.18002267 0
0.00023358315 0.61509442 -0.057373289 0
0.023656428 0.61891633 -0.039111625 0
0.038029265 0.6217612 -0.027323643 0
0.042230405 0.62235212 -0.02399905 0
0.054410517 0.62500829 -0.014058627 0
0.0723956 0.62916362 0.00037156785 0
0.12902057 0.63847065 0.045167997 0
0.13920003 0.64104724 0.053599976 0
0.1480367 0.64276153 0.060084011 0
0.1547747 0.64279073 0.066114828 0
0.16033271 0.64446563 0.070308566 0
0.24465612 0.65997636 0.13769756 0
0.24326104 0.65928507 0.13681501 0
0.24591988 0.66116714 0.13891906 0
0.25005472 0.66174328 0.14230224 0
0.2821739 0.66631567 0.16784494 0
0.28493696 0.6665442 0.16992426 0
0.31206095 0.67310882 0.19205602 0
0.34348905 0.67868251 0.21670991 0
-0.021313898 0.61397332 -0.074835218 0
-0.021331448 0.61404657 -0.074796416 0
-0.01962743 0.61487925 -0.073848747 0
0.011662353 0.620103 -0.048900146 0
0.056071136 0.62748194 -0.013007165 0
0.1002771 0.63575476 0.022477044 0
0.10726385 0.63669407 0.02783116 0
0.14908996 0.64394724 0.06166473 0
0.16928993 0.64852375 0.077582367 0
0.17312239 0.6494953 0.081255399 0
0.19045421 0.65152591 0.094620325 0
0.1959369 0.6529029 0.098982528 0
0.20776248 0.65495515 0.10869478 0
0.21252109 0.65539992 0.11243928 0
0.25172359 0.66274869 0.14288136 0
0.26072127 0.66506594 0.15059906 0
0.28483644 0.66861141 0.16991538 0
0.32244644 0.6759246 0.19977434 0
0.33615223 0.6794427 0.21102704 0
-0.021094257 0.61618817 -0.075056426 0
-0.015680701 0.61568189 -0.070634104 0
0.01075099 0.6211037 -0.05030217 0
0.015473545 0.62318403 -0.045548853 0
0.035501294 0.62588483 -0.029436087 0
0.035421096 0.62584794 -0.029547254 0
0.042458218 0.62643486 -0.024169901 0
0.071243949 0.63213134 -0.00065573829 0
0.078065276 0.63275123 0.0044424804 0
0.093590654 0.63698977 0.01687422 0
0.096060351 0.63688558 0.019049795 0
0.16935636 0.65057331 0.077559061 0
0.17772019 0.65137994 0.084110565 0
0.18599357 0.65425658 0.090987638 0
0.19709159 0.65648925 0.099768594 0
0.21414992 0.65798014 0.11367796 0
0.2734001 0.66883713 0.1602201 0
0.31795454 0.67716932 0.19628854 0
-0.030788507 0.61590284 -0.082594872 0
-0.018403623 0.61776465 -0.072745346 0
0.0050025731 0.62184447 -0.054012906 0
0.0091821738 0.623936 -0.051111978 0
0.043862939 0.62952173 -0.022798108 0
0.049567766 0.63113034 -0.01884223 0
0.074386597 0.63439226 0.0016837455 0
0.078264117 0.63531333 0.0048125349 0
0.10750736 0.64063823 0.028073536 0
0.10883793 0.64167541 0.029097483 0
0.13654342 0.64724052 0.051260982 0
0.20402104 0.65860552 0.1050751 0
0.20552064 0.65944713 0.10628019 0
0.23634471 0.66502351 0.13121498 0
0.23938331 0.66479695 0.13342939 0
0.26530486 0.66966337 0.15389101 0
0.26688248 0.67064333 0.15505117 0
0.26847956 0.67148429 0.15611449 0
0.27495226 0.67213708 0.16166332 0
0.27486426 0.6720888 0.16152939 0
0.30493107 0.67701024 0.18646999 0
0.31221813 0.67761564 0.19178267 0
0.31527716 0.67945623 0.19415104 0
0.32260403 0.68021673 0.19952931 0
0.34495491 0.68405622 0.21799287 0
0.34411696 0.68513256 0.21631573 0
-0.022462251 0.61907029 -0.076053038 0
-0.0086192172 0.62255073 -0.065251626 0
0.00094522908 0.62291098 -0.057523109 0
0.0092298687 0.62577468 -0.051285364 0
0.02357975 0.62752581 -0.039267503 0
0.048123691 0.63208926 -0.019589385 0
0.066229939 0.63627356 -0.0055249454 0
0.067512147 0.6352796 -0.0042924159 0
0.088309973 0.63906282 0.012129433 0
0.092146367 0.64019352 0.01589887 0
0.096449807 0.64088202 0.018815076 0
0.097909719 0.64187658 0.019947385 0
0.10474284 0.64298207 0.025736224 0
0.11529148 0.64521462 0.033948306 0
0.12516093 0.6473524 0.042001594 0
0.12650971 0.64628887 0.043058585 0
0.15043268 0.65173829 0.061855927 0
0.15484256 0.65072042 0.065122023 0
0.18769105 0.65698618 0.091725059 0
0.19188869 0.65932643 0.095242575 0
0.20561242 0.66150165 0.10622298 0
0.21464202 0.66182452 0.11362392 0
0.22684692 0.66435194 0.12330516 0
0.24817906 0.66889966 0.14014888 0
0.2536318 0.67037362 0.14489484 0
0.26392141 0.67085689 0.15258346 0
0.27357206 0.67335081 0.1603795 0
0.27802828 0.67395103 0.16379265 0
0.28844401 0.67675656 0.17229369 0
0.30074191 0.67846727 0.1828464 0
0.3038711 0.67840999 0.18473324 0
0.30224189 0.67944378 0.18375295 0
0.3130087 0.68116319 0.19149745 0
0.31696033 0.68245798 0.19500406 0
-0.021021871 0.62198532 -0.075344123 0
-0.018382709 0.62193286 -0.072965428 0
-0.011334393 0.62268317 -0.067474306 0
-0.005914174 0.62439042 -0.06294629 0
-0.0043679923 0.62535822 -0.062041476 0
-0.0029464141 0.62400955 -0.060791515 0
0.0051247515 0.62597805 -0.054103795 0
0.018242702 0.62850243 -0.043439303 0
0.099168293 0.64288932 0.021180842 0
0.11682877 0.64617306 0.035192654 0
0.12940398 0.65019703 0.045235392 0
0.1571959 0.65335512 0.067625403 0
0.1922964 0.66119105 0.095306687 0
0.20425524 0.66261005 0.10516395 0
0.22689372 0.66652304 0.12336148 0
0.22826111 0.66745925 0.1244369 0
0.24121276 0.66981369 0.1345107 0
0.24290252 0.67092746 0.13629752 0
0.2985867 0.68107486 0.18125913 0
0.30668253 0.68219608 0.18724878 0
0.32250643 0.68445379 0.19985561 0
0.33269316 0.68607855 0.20728348 0
-0.020896818 0.62409133 -0.075007528 0
-0.0041364171 0.62710458 -0.061757151 0
-0.00011748075 0.62796676 -0.058827043 0
0.0051598325 0.62779087 -0.054357376 0
0.01309932 0.62887406 -0.047678959 0
0.017240722 0.62952942 -0.044563033 0
0.0484761 0.63607037 -0.019451689 0
0.052247278 0.63702184 -0.016280958 0
0.063043326 0.63832557 -0.0082499981 0
0.066264525 0.6403513 -0.0055426583 0
0.079876885 0.64116228 0.0057117566 0
0.099062279 0.64486492 0.021209067 0
0.10256879 0.64676994 0.023904283 0
0.11405663 0.64824438 0.032798171 0
0.11995286 0.6497649 0.037146661 0
0.12648211 0.6504513 0.043183912 0
0.13069685 0.65133727 0.046380706 0
0.14474997 0.654329 0.057224009 0
0.17822963 0.65966725 0.084096543 0
0.18281518 0.66018844 0.088040441 0
0.19070604 0.66242766 0.094470091 0
0.21328555 0.66728663 0.11213699 0
0.21875547 0.66692787 0.11682373 0
0.23974246 0.67089063 0.13359806 0
0.24673149 0.67177498 0.13877401 0
0.24814475 0.6727975 0.13993867 0
0.25554633 0.67376465 0.1456784 0
0.30107638 0.68256712 0.18233328 0
0.30721372 0.68441027 0.18745196 0
0.33927968 0.68997926 0.21308368 0
-0.026282679 0.62441951 -0.079630047 0
-0.022096856 0.62497514 -0.076423191 0
-0.018178178 0.62581491 -0.073076047 0
-0.012634389 0.62724262 -0.069068886 0
-0.0041405 0.62904006 -0.061817333 0
0.033172872 0.63642085 -0.031842962 0
0.081366785 0.64437914 0.0065527409 0
0.084531173 0.64439929 0.0090903379 0
0.13066256 0.6533764 0.046313319 0
0.1419526 0.65648329 0.05541129 0
0.14507821 0.65628624 0.057141304 0
0.15877095 0.65964878 0.068536431 0
0.19096571 0.66441554 0.094317466 0
0.23291227 0.67224067 0.12784664 0
0.23875797 0.67410994 0.13211508 0
0.24405684 0.67399305 0.13675323 0
0.27141663 0.67986274 0.1584233 0
0.27530646 0.68080419 0.16121173 0
0.27728611 0.68144524 0.16259444 0
0.30122837 0.68468678 0.18243131 0
0.33096898 0.69078857 0.20461617 0
-0.005312372 0.62993479 -0.063007183 0
0.008273676 0.63292223 -0.052077923 0
0.012049191 0.63374203 -0.048975624 0
0.096762255 0.64893466 0.018909181 0
0.10546948 0.65085554 0.026024707 0
0.11332622 0.6516934 0.03209326 0
0.11993813 0.65387976 0.037296582 0
0.16695054 0.66302127 0.075117171 0
0.17683759 0.66497356 0.082556948 0
0.23004913 0.67454743 0.12556821 0
0.24143034 0.67606282 0.13428313 0
0.2427877 0.67708665 0.13561782 0
0.27830356 0.68250328 0.16340573 0
0.28745934 0.68389463 0.17166887 0
0.3060872 0.68753576 0.18592054 0
-0.017643431 0.6300984 -0.073330231 0
0.0041794591 0.63395494 -0.055253748 0
0.07579124 0.64648128 0.0023320101 0
0.086935505 0.64973718 0.010908761 0
0.10446459 0.65170723 0.025075085 0
0.1119951 0.65486687 0.031000383 0
0.11655368 0.65570164 0.034269784 0
0.13132218 0.65717697 0.046430781 0
0.13675199 0.65926677 0.050819591 0
0.1507434 0.66176367 0.062100943 0
0.18023884 0.66698807 0.085293852 0
0.19717133 0.669761 0.099008285 0
0.20318367 0.67186379 0.10392333 0
0.21643814 0.67304605 0.11457169 0
0.22344871 0.67406386 0.11995281 0
0.26421261 0.68138963 0.15304972 0
0.27526027 0.68504369 0.16106796 0
0.28910196 0.68704665 0.17228892 0
0.29035035 0.68820792 0.17347701 0
0.29364899 0.688425 0.17563187 0
0.30843168 0.68961966 0.18827409 0
-0.026398402 0.63007313 -0.079992123 0
0.0047683641 0.63700008 -0.055018302 0
0.0084939487 0.63685769 -0.052345052 0
0.041121744 0.64288598 -0.02588268 0
0.054517236 0.64431024 -0.015342729 0
0.070441663 0.64878839 -0.001974545 0
0.073647544 0.64864039 -0.00022931903 0
0.078890741 0.65040642 0.0043391399 0
0.097952932 0.65258729 0.018951809 0
0.10828121 0.6561349 0.027903071 0
0.11789481 0.65679878 0.035465617 0
0.12717181 0.65850741 0.043177985 0
0.13560264 0.66014248 0.049248081 0
0.17036855 0.66654485 0.076974437 0
0.17166245 0.66736376 0.078185469 0
0.2414239 0.68027008 0.13454911 0
0.25293103 0.68215108 0.14348981 0
0.28918645 0.68930185 0.17231563 0
0.30485082 0.69200885 0.18367615 0
-0.024830382 0.63273925 -0.078728661 0
0.01500877 0.63949335 -0.046765428 0
0.084493212 0.65383607 0.0083715552 0
0.12204926 0.66067588 0.038342893 0
0.13876075 0.66377878 0.051501341 0
0.15244591 0.66528225 0.06300503 0
0.21036565 0.67611581 0.1094169 0
0.219263 0.67722845 0.11663949 0
0.22493114 0.67896581 0.12125666 0
0.24012962 0.68144566 0.13346122 0
0.25559872 0.68414938 0.14570045 0
0.2722567 0.68703693 0.15877952 0
-0.03514557 0.63296342 -0.086815685 0
-0.023335673 0.63560498 -0.077721328 0
-0.020595431 0.63561553 -0.075623497 0
-0.019420041 0.63494176 -0.074443936 0
0.03159786 0.64412463 -0.033940438 0
0.076208845 0.65243363 0.0021460331 0
0.077519149 0.65341419 0.0033210805 0
0.11788063 0.66079414 0.03519896 0
0.15114193 0.66835171 0.061700664 0
0.15387289 0.66817868 0.063854799 0
0.2092513 0.67788994 0.10850623 0
0.2208994 0.68036145 0.11773596 0
0.2895644 0.69344574 0.17223436 0
0.30313882 0.69564682 0.18276873 0
-0.015160771 0.63914287 -0.071289346 0
-0.0015482157 0.64094335 -0.060746226 0
0.0050968044 0.64149094 -0.05516592 0
0.024788309 0.64556223 -0.039381444 0
0.03420167 0.64799303 -0.03168416 0
0.042531721 0.64961404 -0.024981154 0
0.070905373 0.65448833 -0.0023355505 0
0.069679871 0.65347302 -0.0035506175 0
0.11805695 0.66280007 0.035203166 0
0.13465752 0.66711009 0.048460182 0
0.13571951 0.6656217 0.049490687 0
0.14001864 0.66698015 0.052663572 0
0.15226468 0.66939884 0.063075319 0
0.16482426 0.67131293 0.072989352 0
0.17189324 0.67364597 0.078705169 0
0.19650982 0.67802316 0.098110266 0
0.19964631 0.67773885 0.10045458 0
0.19816862 0.67857456 0.099347696 0
0.20654009 0.68034476 0.10601841 0
0.21675041 0.68152779 0.11447794 0
0.22410358 0.68404871 0.11957535 0
0.23343873 0.68454009 0.12769412 0
0.25872466 0.69065177 0.14768536 0
-0.026965048 0.63881272 -0.080836169 0
-0.024366489 0.63891327 -0.07898473 0
-0.021448845 0.63852513 -0.076724075 0
0.0051964819 0.64342296 -0.055267248 0
0.0065185055 0.64435709 -0.054240927 0
0.014099877 0.64470696 -0.047930103 0
0.016527079 0.64615732 -0.045972589 0
0.019444067 0.64570439 -0.043868139 0
0.027300533 0.64744097 -0.037279822 0
0.031797286 0.64801991 -0.034024596 0
0.041542359 0.65066737 -0.02645099 0
0.043893985 0.65062565 -0.023865264 0
0.056155946 0.65337074 -0.014262187 0
0.0830817 0.65893418 0.0074697426 0
0.10564021 0.66203952 0.02539962 0
0.11159015 0.66464961 0.030100163 0
0.14287043 0.66896409 0.054977387 0
0.14448084 0.66980112 0.05611233 0
0.15122244 0.67242956 0.061679438 0
0.19274448 0.67945594 0.094571367 0
0.25136036 0.69084907 0.13981771 0
0.021063559 0.64862347 -0.043025769 0
0.042834051 0.65378869 -0.025029033 0
0.050730359 0.65360498 -0.018571982 0
0.11582331 0.66661525 0.032797664 0
0.12724134 0.66844141 0.042484529 0
0.1371471 0.67145079 0.050648406 0
0.14991233 0.67340577 0.060560908 0
0.15120344 0.67439526 0.061647404 0
0.15538114 0.67514735 0.064999759 0
0.17614867 0.67918575 0.082006454 0
0.17780319 0.67852139 0.082909942 0
0.19129132 0.68068433 0.093409516 0
0.18988185 0.68176007 0.092429899 0
0.18989374 0.68166542 0.092544146 0
0.19281219 0.68153161 0.094465032 0
0.19978708 0.68224341 0.10015754 0
0.19818591 0.68137628 0.099186584 0
-0.029756125 0.64137459 -0.083075382 0
-0.025280662 0.64195728 -0.08018849 0
-0.022688905 0.64165258 -0.07789389 0
-0.014576666 0.64319444 -0.071398646 0
0.062090915 0.65806299 -0.0097251851 0
0.070672244 0.65927315 -0.0032219919 0
0.079758584 0.66189903 0.0038367077 0
0.12478384 0.67070276 0.040381663 0
0.13763997 0.67333204 0.050340142 0
0.16239153 0.67761654 0.070860863 0
0.18854174 0.68277192 0.091496356 0
-0.022390869 0.64550561 -0.077899426 0
-0.010047859 0.64636225 -0.068022899 0
-0.0068530049 0.64715457 -0.064843871 0
0.034932017 0.65613687 -0.031639263 0
0.053935099 0.6594975 -0.016728912 0
0.070912808 0.66328335 -0.0032487726 0
0.076429293 0.66357112 0.0017261872 0
0.082597479 0.6635555 0.0063067852 0
0.088140763 0.66536331 0.010591699 0
0.11926043 0.67136621 0.035705227 0
0.13058767 0.67269272 0.044661239 0
0.13589963 0.67458248 0.049238015 0
0.14488521 0.67608094 0.055608019 0
-0.021088777 0.64638555 -0.076779723 0
0.00048663095 0.65157318 -0.059782464 0
0.040343344 0.65916473 -0.027615596 0
0.04556267 0.65860987 -0.023641456 0
0.066359192 0.66274619 -0.0064800037 0
0.085605688 0.667669 0.0082300818 0
0.096101314 0.66913652 0.017418535 0
0.10504377 0.67034906 0.024583725 0
0.12111681 0.67402434 0.036733728 0
0.12353134 0.67374736 0.039147452 0
0.13768551 0.67740232 0.050372146 0
0.15410422 0.68003643 0.063705139 0
0.16722119 0.68372351 0.074889995 0
0.17554262 0.68461937 0.079192668 0
-0.031770814 0.64724177 -0.085303389 0
-0.015889909 0.64888686 -0.072440185 0
-0.00084301457 0.65275037 -0.060704704 0
0.0064340606 0.65469503 -0.055004168 0
0.011882927 0.65434182 -0.05088713 0
0.020032287 0.65579706 -0.04392501 0
0.055558871 0.66238487 -0.015587921 0
0.068075784 0.6654281 -0.0052731428 0
0.066810325 0.66647875 -0.0063753068 0
0.079803258 0.66755831 0.0035044278 0
0.088401198 0.66970444 0.010254887 0
0.09830378 0.67200887 0.017887553 0
0.10772613 0.67299676 0.026260257 0
0.13948625 0.68027997 0.051306918 0
-0.033129111 0.64827484 -0.086292878 0
-0.031701308 0.64912659 -0.085215412 0
-0.023376275 0.65072227 -0.07937333 0
0.024335906 0.66029054 -0.040494755 0
0.031115767 0.66033483 -0.035333749 0
0.029714864 0.65954804 -0.03635199 0
0.041814692 0.66206646 -0.026488524 0
0.047391467 0.66347295 -0.02215755 0
0.0545744 0.66547108 -0.016714377 0
0.062532015 0.6661464 -0.0098579228 0
0.077075779 0.66981483 0.0014631035 0
0.12473492 0.67862207 0.03972885 0
0.13354638 0.68118519 0.047227744 0
0.13625045 0.68073118 0.04941415 0
0.17578231 0.68727469 0.079367846 0
0.19800684 0.6918593 0.092861719 0
-0.03306431 0.65015179 -0.086281136 0
0.047520928 0.66544628 -0.022162549 0
0.06403318 0.66910177 -0.0087873163 0
0.090797707 0.67380893 0.012796256 0
0.10320843 0.67624122 0.021826882 0
0.14503428 0.68421429 0.055445716 0
-0.032763436 0.6520614 -0.086119652 0
0.017467853 0.66221517 -0.046278134 0
0.047734097 0.66742319 -0.02218288 0
0.071442828 0.67193067 -0.0025398387 0
0.0731095 0.67272443 -0.0015667644 0
0.19747037 0.69313794 0.076909393 0
0.20063142 0.69290543 0.078645661 0
-0.0019321069 0.66049182 -0.062039934 0
0.0032238476 0.66137505 -0.05838329 0
0.017937467 0.66440141 -0.046101738 0
0.02092943 0.66372067 -0.044139557 0
0.04537195 0.66997725 -0.024561925 0
0.11051372 0.68161756 0.028164282 0
-0.01491213 0.66008276 -0.072441451 0
0.0016510673 0.66374815 -0.059405331 0
0.0034184381 0.66336811 -0.058471691 0
0.029765282 0.669007 -0.037040371 0
0.030869506 0.66799682 -0.035840463 0
0.064635739 0.67502964 -0.0088021625 0
-0.026085785 0.6586352 -0.081527226 0
-0.016054578 0.66108543 -0.073558189 0
-0.012843823 0.66122669 -0.070769474 0
0.0034796521 0.66538298 -0.058452822 0
0.022672519 0.66852844 -0.042521771 0
0.029705096 0.67100954 -0.037047688 0
0.03091361 0.67005944 -0.035842892 0
0.051029574 0.6734128 -0.019948112 0
0.069238357 0.67885929 -0.0052364063 0
0.12460742 0.68579924 0.022508828 0
-0.031160019 0.66121465 -0.085674055 0
-0.028658057 0.66053444 -0.083622552 0
-0.022724539 0.6619572 -0.079102539 0
-0.015346706 0.66338527 -0.073359221 0
-0.0095575489 0.66499805 -0.068704151 0
-0.011306651 0.66403234 -0.069985926 0
-0.0053886622 0.66588384 -0.065568544 0
0.026626509 0.67121136 -0.039483447 0
0.028641831 0.67219758 -0.038301013 0
0.035046745 0.6727652 -0.033442184 0
0.037460834 0.67467946 -0.030918891 0
-0.030824533 0.66522729 -0.085842758 0
-0.021387143 0.66708457 -0.078292154 0
-0.013579013 0.6684252 -0.072297372 0
0.0030491687 0.67065263 -0.058548655 0
0.030090462 0.67525387 -0.03738207 0
0.040610753 0.67711627 -0.030073529 0
0.061346915 0.68108374 -0.021627082 0
-0.025090132 0.66838163 -0.081485286 0
-0.026537351 0.66758966 -0.082395613 0
-0.021249617 0.66904324 -0.078355744 0
0.00055536255 0.6730395 -0.05982627 0
0.0088170916 0.67445534 -0.054110497 0
0.040903617 0.67901915 -0.039968267 0
-0.019912679 0.67001057 -0.077325918 0
-0.018559532 0.67099303 -0.076218277 0
-0.014354181 0.6714794 -0.073600844 0
0.01489903 0.67696619 -0.05220316 0
0.031964928 0.67891848 -0.040132273 0
0.039506998 0.68066126 -0.039912403 0
-0.029959796 0.67118829 -0.085878834 0
0.02134252 0.68077248 -0.047811579 0
-0.085000679 0.67669374 -0.03983647 0
-0.028562628 0.67205632 -0.084562361 0
-0.0058007948 0.67738378 -0.067468502 0
-0.085409537 0.67812532 -0.038988668 0
-0.0073124897 0.67846215 -0.073481724 0
0.0035931133 0.68110675 -0.06806381 0
-0.02401852 0.6794492 -0.083074704 0
0.050327376 -0.40357623 0.24624337 0
0.05192709 -0.3995302 0.24663232 0
0.054281607 -0.40048712 0.24920109 0
0.032239802 -0.39662424 0.23385611 0
0.054490425 -0.394539 0.24722658 0
0.053052627 -0.38735202 0.24318464 0
0.059068926 -0.37414566 0.24213438 0
0.075901769 -0.37301987 0.25343925 0
0.087004527 -0.36982962 0.26633072 0
0.073143736 -0.36586505 0.25021455 0
0.088735938 -0.36186227 0.26557899 0
0.085756823 -0.35782471 0.26013595 0
0.088833794 -0.35134399 0.26468554 0
0.089572415 -0.34781355 0.26555574 0
0.083191484 -0.33864722 0.26169181 0
0.019120835 -0.33556941 0.23427451 0
0.072909169 -0.33311144 0.25598741 0
0.069639847 -0.32963088 0.25624502 0
0.071288697 -0.33129027 0.25632462 0
0.05687239 -0.32655102 0.25292671 0
0.066324316 -0.32491025 0.25949845 0
0.057272896 -0.31963384 0.2602202 0
0.096069746 -0.31909728 0.27910483 0
0.039365917 -0.31274337 0.25151721 0
0.0441209 -0.31335196 0.25636452 0
0.045369647 -0.31120771 0.2560595 0
0.052053645 -0.30429143 0.26097167 0
0.06067048 -0.29450816 0.26358807 0
0.095194213 -0.2889922 0.28604659 0
0.09211763 -0.28638244 0.28459784 0
0.093717813 -0.28684208 0.28615943 0
0.078642301 -0.28190699 0.26481026 0
0.091449358 -0.28426415 0.28442255 0
0.084649898 -0.27728975 0.25846732 0
0.11818122 -0.23693563 0.20694073 0
0.13176277 -0.23821704 0.21394546 0
0.11142909 -0.23384966 0.20580886 0
0.13395856 -0.22480366 0.20813547 0
0.13964766 -0.22352435 0.21263826 0
0.14256158 -0.22363785 0.2154258 0
0.1318101 -0.2224371 0.20608263 0
0.14791675 -0.21275342 0.21522908 0
0.13886669 -0.20883973 0.20766596 0
0.13816465 -0.20509556 0.20712636 0
0.13064477 -0.19641541 0.20466256 0
0.15074971 -0.19432537 0.21426472 0
0.15100706 -0.18855481 0.21340056 0
0.15109266 -0.18633606 0.2131926 0
0.15244669 -0.18415295 0.21408352 0
0.15511426 -0.18440659 0.21623088 0
0.16154233 -0.17634179 0.22139302 0
0.164217 -0.17645177 0.22433488 0
0.14846165 -0.17276889 0.21140051 0
0.16071638 -0.16873896 0.21987109 0
0.16545622 -0.1677794 0.22399034 0
0.16694893 -0.16315582 0.22644831 0
0.16859661 -0.16225669 0.22757211 0
0.17005074 -0.15878324 0.22876811 0
0.17084831 -0.15375115 0.22871055 0
0.14397782 -0.14723305 0.21324009 0
0.14896731 -0.14717995 0.21545239 0
0.16889513 -0.14760277 0.22625557 0
0.16759789 -0.14644301 0.22499785 0
0.16902539 -0.14545161 0.22632664 0
0.10115007 -0.14578722 0.23998724 0
0.15808675 -0.14487644 0.21894214 0
0.17070512 -0.14442401 0.22718439 0
0.17711127 -0.14332992 0.23485903 0
0.16307296 -0.14189808 0.22124439 0
0.094263822 -0.14337941 0.23646766 0
0.095274918 -0.14190662 0.23762159 0
0.16167712 -0.13557641 0.22038285 0
0.10459369 -0.13485332 0.24494743 0
0.088739134 -0.13297342 0.23664866 0
0.090625629 -0.13306749 0.23783809 0
0.16340584 -0.12988637 0.22092146 0
0.17945558 -0.12835671 0.23305415 0
0.069498219 -0.12865916 0.22851303 0
0.16937947 -0.12539741 0.22420064 0
0.17088766 -0.12658286 0.22494075 0
0.17476639 -0.12650038 0.22830196 0
0.17733361 -0.12270501 0.23003554 0
0.16066192 -0.11898199 0.21954772 0
0.17997628 -0.11805965 0.23132737 0
0.18639594 -0.11754671 0.23851807 0
0.16059546 -0.11563032 0.21972719 0
0.075917877 -0.11753339 0.23891793 0
0.078978948 -0.1166479 0.24221896 0
0.10554081 -0.1174036 0.24757445 0
0.18420911 -0.11484686 0.23578008 0
0.18559575 -0.11410049 0.23732834 0
0.075622052 -0.11510108 0.24129806 0
0.17033623 -0.11131698 0.22404782 0
0.17801028 -0.11087514 0.22916435 0
0.18486397 -0.11265583 0.23512211 0
0.16628028 -0.10892379 0.22161387 0
0.16715334 -0.10727847 0.22246931 0
0.16950288 -0.10827959 0.22392146 0
0.1783565 -0.10663956 0.22870448 0
0.18554688 -0.10611178 0.23532708 0
0.18251863 -0.098205909 0.23119372 0
0.19321758 -0.096508846 0.24104416 0
0.095810249 -0.097811572 0.25118589 0
0.11726649 -0.09735658 0.2600826 0
0.17487076 -0.093305729 0.22593611 0
0.16867349 -0.091203928 0.22336476 0
0.1715388 -0.090060376 0.22535217 0
0.18330607 -0.085381478 0.23029961 0
0.19140112 -0.08571998 0.23647133 0
0.19158074 -0.080741078 0.2371726 0
0.18496174 -0.080387376 0.23099519 0
0.19670151 -0.078112744 0.24127069 0
0.18531616 -0.075474285 0.23165104 0
0.19896342 -0.059994519 0.23517281 0
0.13306083 -0.059220873 0.27009854 0
0.1399377 -0.057712551 0.27585074 0
0.14187336 -0.057234481 0.27571169 0
0.137604 -0.056377798 0.26912549 0
0.2059536 -0.049203102 0.23663114 0
0.20460746 -0.041671984 0.23230068 0
0.14039579 -0.040267996 0.26324818 0
0.18644926 -0.032923892 0.21944883 0
0.2050806 -0.028420392 0.22905497 0
0.19856861 -0.018068355 0.22013828 0
0.14146353 -0.019526232 0.25639179 0
0.20613298 -0.015861448 0.22702776 0
0.20174555 -0.0090007735 0.221444 0
0.079445578 -0.010418463 0.17483841 0
-0.038314633 -0.0097129662 0.074902311 0
0.12152789 -0.0071150418 0.23691224 0
-0.030984472 -0.0079405373 0.079143658 0
0.012719288 -0.0085521042 0.12519717 0
0.20196623 0.00070738606 0.22053725 0
0.01435139 -0.0016590185 0.11681832 0
-0.020372022 -0.0001438281 0.081793293 0
-0.014760457 -0.0011893681 0.088128291 0
-0.0091609992 -0.000812151 0.092585281 0
0.0079896078 -0.00027873041 0.10937776 0
0.036836907 0.0012248065 0.1376605 0
0.13617305 0.0038183481 0.23602699 0
-0.04040423 0.00072466768 0.065451063 0
-0.028367687 0.0011509784 0.074312299 0
-0.011449177 0.00075652101 0.089343533 0
-0.0099483468 0.0026161044 0.089295566 0
0.013918817 0.0038359091 0.11111751 0
0.044278637 0.0050245053 0.14140297 0
0.20135432 0.0099888118 0.21862189 0
-0.043407332 0.004951519 0.061576225 0
-0.03621104 0.0052640121 0.066084966 0
0.011733674 0.0053901663 0.10738786 0
0.085707679 0.0070407414 0.16267259 0
0.1359299 0.0082937162 0.23284452 0
0.013638221 0.0086491518 0.10710182 0
0.081930131 0.0099433884 0.15598308 0
0.10639281 0.010089547 0.18204299 0
0.13129455 0.010076304 0.22887632 0
-0.040044099 0.0079101883 0.062332913 0
-0.034635041 0.0092844144 0.065302558 0
-0.017875388 0.0095337387 0.077513754 0
0.041908145 0.010992967 0.13354129 0
0.069669262 0.011996852 0.14385901 0
0.038132757 0.012268031 0.12867001 0
0.05039338 0.011926754 0.14124937 0
-0.029509265 0.013092875 0.06605956 0
0.025260642 0.01505809 0.11471844 0
0.03820806 0.015472937 0.126525 0
0.046335675 0.014962525 0.13467546 0
0.047968306 0.01528801 0.13635793 0
0.083228923 0.015030007 0.1523371 0
0.13872924 0.017302234 0.22860941 0
0.20055246 0.01864122 0.21656583 0
-0.020247925 0.015549945 0.072862789 0
0.016748086 0.016677866 0.10542507 0
0.026054747 0.016012512 0.11480671 0
0.089445807 0.018014146 0.15763991 0
0.19871044 0.020849053 0.21346 0
-0.020740245 0.017115496 0.071436025 0
-0.012555048 0.016170753 0.07862369 0
0.042592771 0.018465362 0.12936702 0
0.047193289 0.019549899 0.13262923 0
0.072897486 0.020175273 0.14177583 0
0.114127 0.02089652 0.18073216 0
-0.012353178 0.019549862 0.077352703 0
0.086564928 0.021217046 0.15229325 0
0.093802966 0.022687867 0.15833548 0
0.11335169 0.0225343 0.17986488 0
-0.010977391 0.020173406 0.078566007 0
0.022796184 0.022448391 0.1086252 0
0.082762979 0.023479376 0.14656344 0
0.086327307 0.022944609 0.1505782 0
0.10528575 0.02459486 0.16695726 0
0.02763848 0.023282707 0.11337715 0
0.085478514 0.026028415 0.14766392 0
0.087517865 0.024862561 0.15081681 0
0.13250977 0.027364226 0.20091049 0
-0.00021941215 0.025270617 0.085741051 0
0.011393353 0.026383091 0.09592516 0
0.081486717 0.026765153 0.14340158 0
0.083324663 0.02716328 0.1446645 0
0.19700596 0.031006638 0.21206479 0
0.012250014 0.028267993 0.096716858 0
0.080346711 0.029719468 0.14163923 0
0.11476143 0.030273337 0.17875637 0
0.11654664 0.030311685 0.17948703 0
0.14557312 0.030950487 0.22120804 0
0.19602716 0.033333331 0.21228687 0
0.020777762 0.030149234 0.1045354 0
0.08867728 0.031710438 0.14755508 0
0.13257426 0.032889053 0.197831 0
0.1383478 0.033942755 0.20412914 0
0.1461038 0.033979185 0.21735141 0
0.022373326 0.030824775 0.10583922 0
0.054901153 0.033107243 0.13561766 0
0.025971688 0.033609234 0.10957687 0
0.10262951 0.036814742 0.16006128 0
-0.0081708916 0.035275649 0.079013519 0
0.095277883 0.03788913 0.15230678 0
0.099410251 0.037067086 0.15696162 0
0.11821426 0.037908774 0.17973976 0
-0.0080959909 0.037410509 0.080146089 0
-0.0066516809 0.036784776 0.081086822 0
0.0316974 0.037774317 0.11492351 0
0.1087708 0.040511504 0.1640923 0
0.024840899 0.038893163 0.10768475 0
0.048529908 0.040055189 0.12979549 0
0.10495324 0.042519208 0.160382 0
0.14296135 0.042447884 0.21104749 0
0.10966606 0.044236515 0.16404131 0
0.19176751 0.047563009 0.20659387 0
0.19017342 0.04865022 0.20459215 0
0.19315599 0.048663843 0.20814322 0
-0.010599542 0.043433238 0.083039463 0
0.019935757 0.045529582 0.10425141 0
0.092439562 0.047755614 0.14515184 0
0.13671929 0.049159542 0.20493552 0
-0.00039885193 0.047300991 0.091344863 0
0.034879386 0.047117107 0.11852359 0
0.090995446 0.04994287 0.14399652 0
0.093116857 0.049573202 0.14527075 0
-0.00020300597 0.049147554 0.092750184 0
0.025908746 0.055941939 0.11325164 0
0.026636362 0.057540465 0.11470934 0
0.036539324 0.056574564 0.12214776 0
0.10799917 0.059484795 0.15891671 0
0.12184351 0.060737252 0.18293367 0
0.17524666 0.063056037 0.1931745 0
-0.0097148232 0.057710975 0.08377099 0
0.18823764 0.063801222 0.20219801 0
0.036529824 0.061440803 0.12353781 0
0.099441834 0.063861847 0.14890009 0
0.12123394 0.065072313 0.18293104 0
0.18816802 0.065947652 0.20205468 0
-0.0069607832 0.062095642 0.085092492 0
0.092655711 0.064877279 0.14228836 0
0.10311209 0.066225536 0.15130678 0
0.11057025 0.066040896 0.15983778 0
0.19022447 0.07032311 0.20641968 0
-0.003711354 0.065996535 0.088920966 0
0.10673221 0.070155941 0.15536052 0
0.10807426 0.069182962 0.15675443 0
-0.0033900626 0.06842535 0.088196166 0
0.00017689914 0.067272007 0.092371501 0
0.037905723 0.070139118 0.12807663 0
-0.054662012 0.06715294 0.060231164 0
0.00035510212 0.069435924 0.092483677 0
-0.003363926 0.070551723 0.088132553 0
0.09237089 0.075042963 0.14990856 0
-0.0050833002 0.07396502 0.086618714 0
0.03736715 0.075441085 0.13122177 0
0.12223155 0.079051703 0.18748365 0
0.030514628 0.076108962 0.12962516 0
0.037835181 0.076292351 0.13263236 0
-0.034084886 0.075598359 0.070319675 0
-0.015187331 0.077445991 0.07948035 0
0.034278728 0.079056375 0.13306698 0
0.055603668 0.078717627 0.14438923 0
0.12009013 0.082418256 0.1858668 0
0.0017331094 0.079152025 0.093726531 0
-8.7209046e-05 0.082066536 0.092487365 0
0.0040918291 0.081665181 0.096486293 0
0.17799945 0.087990016 0.19035171 0
0.041461565 0.085378371 0.14110735 0
0.17940642 0.090374522 0.19227768 0
0.040122829 0.087015353 0.14172956 0
0.089756623 0.08930406 0.14696428 0
0.17945233 0.092561007 0.19218284 0
0.0045661777 0.088013388 0.098150454 0
0.030220501 0.087868348 0.13903344 0
-0.0014021359 0.088851638 0.092648208 0
-0.0006666705 0.090610966 0.093553603 0
-0.007837899 0.093447708 0.089955613 0
0.0047313422 0.09375076 0.10069197 0
0.043279722 0.095324464 0.14955139 0
0.0033313408 0.094388984 0.099207483 0
0.0057431236 0.095097534 0.1019839 0
0.029032558 0.097020283 0.14846236 0
0.045717768 0.09621042 0.15082015 0
0.10206776 0.098445177 0.16599509 0
0.087317742 0.10122687 0.15528302 0
0.17149541 0.10299489 0.18448748 0
0.023627132 0.10046922 0.13891445 0
0.15793921 0.10510385 0.17658001 0
0.0025603846 0.1001454 0.10072436 0
0.059938602 0.1027465 0.1633558 0
0.067031279 0.10655317 0.16927995 0
-0.035851948 0.10367952 0.087454207 0
0.049197435 0.10667621 0.16192722 0
0.051350556 0.10685761 0.1633949 0
0.0024634525 0.10658683 0.10356062 0
0.12492146 0.11176212 0.16848804 0
0.0091035813 0.10799256 0.1106294 0
0.14231266 0.11391537 0.15772972 0
0.0043225288 0.11115264 0.10749185 0
0.16725352 0.11686502 0.169246 0
0.047565542 0.11466439 0.17174 0
0.12952366 0.11803515 0.15441041 0
-0.033621497 0.11266902 0.094704665 0
0.013067216 0.11549245 0.11823658 0
0.06412299 0.11693186 0.1790774 0
0.21045658 0.12363827 0.2080324 0
0.26389638 0.12610969 0.25050604 0
0.25223029 0.12639156 0.24047022 0
0.1954976 0.12678699 0.1936823 0
0.21292484 0.12790057 0.20789425 0
0.2572794 0.12920067 0.24362341 0
0.26834005 0.12951779 0.2524983 0
0.0072180629 0.12065209 0.11593146 0
0.18051055 0.12736714 0.17535798 0
0.19770722 0.12855768 0.19290099 0
0.20524843 0.12964116 0.19873098 0
0.24034774 0.1304177 0.22847874 0
-0.029927678 0.12056534 0.1030347 0
0.2313149 0.13291436 0.21934351 0
0.25966486 0.13316269 0.24362807 0
0.27354679 0.1344365 0.25611058 0
0.28822255 0.13434654 0.26934797 0
0.0091144927 0.12559132 0.1200531 0
0.014165975 0.1248605 0.12426231 0
0.24231204 0.13483594 0.22820389 0
0.047818534 0.12924816 0.20548585 0
0.050358571 0.13051164 0.20727576 0
0.19977947 0.13530931 0.18977797 0
0.20893379 0.13591748 0.19829981 0
0.018339466 0.12903018 0.1309621 0
0.016872123 0.12966876 0.12927906 0
0.044202328 0.13216862 0.20538568 0
0.18222758 0.13574612 0.17263757 0
0.19546977 0.13696325 0.18494815 0
0.24432027 0.13925333 0.22808832 0
0.27472419 0.13978443 0.25414625 0
0.27931255 0.14136612 0.25821343 0
0.2849946 0.14164916 0.2637195 0
0.2230835 0.13988534 0.20832238 0
0.23965262 0.14129056 0.22201543 0
0.27046919 0.14210507 0.25006932 0
0.27709126 0.14219245 0.25547364 0
0.0086987764 0.13270682 0.12444941 0
0.047428757 0.13498275 0.21182129 0
0.18679123 0.13990575 0.17410727 0
0.20391443 0.14005572 0.19111492 0
0.23147842 0.14297414 0.21372791 0
0.23056245 0.14119247 0.21380591 0
0.23719937 0.14273435 0.21941307 0
0.24061896 0.14344147 0.22191642 0
0.25965565 0.14380716 0.23859029 0
0.25812986 0.14301927 0.23729302 0
0.27370715 0.14471321 0.25114277 0
0.015363894 0.13521308 0.13125971 0
0.22147301 0.14274941 0.2053982 0
0.24763432 0.14550281 0.22752008 0
0.27438837 0.14683841 0.25102919 0
0.16516766 0.14227177 0.15659271 0
0.2149144 0.14535046 0.19801679 0
0.23424427 0.14553031 0.21510747 0
0.23339179 0.14707001 0.21374258 0
0.2757709 0.14752738 0.25254315 0
0.29380596 0.14922541 0.26757696 0
0.20978826 0.14627531 0.19193034 0
0.23439629 0.14899911 0.21381837 0
0.26032567 0.14952496 0.23712513 0
0.27729571 0.15127616 0.25158536 0
0.16915613 0.14711125 0.15806229 0
0.1922859 0.14870059 0.17357795 0
0.19602586 0.14786176 0.17833002 0
0.20497459 0.14873311 0.18584144 0
0.21430486 0.14898582 0.1947391 0
0.25712228 0.15180109 0.23276971 0
0.27198952 0.15119754 0.2464464 0
0.13514782 0.14779451 0.14308518 0
0.20467438 0.15058754 0.18436114 0
0.21527332 0.150986 0.19484776 0
0.2337926 0.15283349 0.21173467 0
0.28727061 0.15519606 0.25881782 0
0.016900368 0.144678 0.1388469 0
0.17813101 0.14997937 0.16190849 0
0.20587449 0.1523091 0.18431169 0
0.25391498 0.15427169 0.22873931 0
0.28137651 0.15673502 0.2530975 0
-0.003793899 0.14514086 0.1328491 0
0.038967904 0.14935789 0.17366895 0
0.18819089 0.15297164 0.1687395 0
0.21601762 0.15436511 0.19318995 0
0.21966362 0.15516013 0.19614039 0
0.27901012 0.15768361 0.25013593 0
-0.010342497 0.14779884 0.13497598 0
0.02333409 0.14835586 0.14709879 0
0.12482056 0.15195119 0.14472739 0
0.21321386 0.157378 0.18856318 0
0.21315937 0.15742429 0.18844964 0
