# .PCD v0.7 - Point Cloud Data file format
VERSION 0.7
FIELDS x y z intensity
SIZE 4 4 4 4
TYPE F F F F
COUNT 1 1 1 1
WIDTH 1331
HEIGHT 1
VIEWPOINT 0 0 0 1 0 0 0
POINTS 1331
DATA ascii
0.12330735 0.55053282 0.54104859 0
0.091079578 0.5522306 0.51443899 0
0.08705847 0.55211395 0.51128095 0
0.071011826 0.55282497 0.49807176 0
0.048366595 0.55316824 0.48003003 0
0.043600488 0.55336642 0.47637364 0
0.040506471 0.55394125 0.47376549 0
-0.01270019 0.55562007 0.43090609 0
-0.037997246 0.55655915 0.4099904 0
-0.04711483 0.55564606 0.40278411 0
-0.045671012 0.5569005 0.40332067 0
-0.051750477 0.55705243 0.39875013 0
-0.053111359 0.55603528 0.39805931 0
-0.059046078 0.55654776 0.39321041 0
-0.05765811 0.55738533 0.39402586 0
-0.074175701 0.55735296 0.38081113 0
-0.078020506 0.55744368 0.37774497 0
-0.12028532 0.55920935 0.34333199 0
-0.13239297 0.55812579 0.33278328 0
-0.16389574 0.56048071 0.30743468 0
-0.17530185 0.55976504 0.29819125 0
-0.17654452 0.56049925 0.29719111 0
-0.18865669 0.56019121 0.28722858 0
-0.20011847 0.5606302 0.27799219 0
-0.22588296 0.56182981 0.256733 0
-0.22945797 0.56265604 0.25419888 0
-0.25633848 0.56288016 0.23220986 0
0.13570613 0.55134225 0.55085438 0
0.12650806 0.55312294 0.54310572 0
0.098238602 0.55315143 0.51941329 0
0.095786765 0.55415004 0.51788455 0
0.077798605 0.5538677 0.50318444 0
0.079203054 0.55315554 0.50466067 0
0.074030638 0.55433667 0.50034004 0
0.059041999 0.55499375 0.48790482 0
0.046271119 0.55473703 0.47784916 0
0.036944214 0.55574864 0.47033581 0
0.025070833 0.55563337 0.46049362 0
-0.0060989205 0.55741584 0.43561977 0
-0.012764488 0.55735964 0.43078291 0
-0.023573607 0.55767536 0.42195269 0
-0.035085898 0.55684519 0.41229132 0
-0.055315953 0.55747658 0.39601412 0
-0.072925448 0.55934364 0.38131857 0
-0.088671982 0.55942065 0.36860722 0
-0.092146456 0.56022209 0.36561629 0
-0.12657984 0.56068838 0.33771199 0
-0.16849676 0.56202477 0.30335018 0
-0.18248114 0.56270015 0.29202506 0
-0.18842074 0.56211537 0.28719592 0
-0.19626695 0.56317985 0.28071877 0
-0.2055753 0.56327605 0.27341732 0
-0.20445454 0.56236023 0.27440992 0
-0.20852946 0.56264746 0.27066782 0
-0.211922 0.56340146 0.26802018 0
-0.22932413 0.5643962 0.25378981 0
0.13245794 0.55382663 0.54754174 0
0.10708517 0.55484813 0.52690196 0
0.10316286 0.55394971 0.52404577 0
0.091165431 0.55566651 0.51385415 0
0.083241418 0.55606484 0.50736398 0
0.073942721 0.55651337 0.49976009 0
0.040578146 0.55722642 0.47303876 0
0.035680342 0.55645204 0.46922904 0
0.032221835 0.55646926 0.46625206 0
0.02840516 0.55703437 0.46352431 0
0.0062409779 0.5588156 0.44512567 0
0.0062215617 0.55724216 0.44522396 0
-0.0089465771 0.55853742 0.43324539 0
-0.011567865 0.55836874 0.43138897 0
-0.012661256 0.55931121 0.43058798 0
-0.026027 0.55892438 0.4194892 0
-0.048074156 0.55978596 0.40140444 0
-0.057515036 0.5608303 0.39365619 0
-0.10452573 0.56091052 0.35543704 0
-0.11394314 0.56217855 0.34734708 0
-0.12535153 0.56171227 0.33842036 0
-0.1465237 0.56352526 0.32084849 0
-0.14501941 0.56266999 0.32163829 0
-0.14790437 0.56263113 0.32003957 0
-0.15369521 0.56297863 0.31524828 0
-0.1583546 0.56285214 0.3110953 0
-0.16475368 0.56300831 0.30602413 0
-0.16589074 0.56400025 0.30510136 0
-0.18081121 0.56435376 0.29319051 0
-0.2075749 0.56544715 0.27146426 0
-0.20973733 0.56511313 0.26921767 0
-0.24707878 0.56555796 0.23888499 0
0.13907833 0.55496258 0.55264115 0
0.13370517 0.55477375 0.54839176 0
0.13254988 0.55557579 0.54732096 0
0.122035 0.55657715 0.53861111 0
0.097449154 0.5568198 0.51859486 0
0.077505812 0.55732226 0.50274032 0
0.076240405 0.55670863 0.50172991 0
0.064251326 0.55736816 0.49194381 0
0.050329003 0.55744636 0.48078641 0
0.042803682 0.55903256 0.47428146 0
0.036990985 0.55951989 0.46960393 0
0.034460332 0.55886728 0.46793726 0
0.028347719 0.55876058 0.46299651 0
0.015111549 0.5590812 0.4519389 0
-0.016267035 0.56120175 0.42707488 0
-0.017355781 0.56010377 0.42625013 0
-0.048023134 0.56152302 0.40118715 0
-0.049093697 0.56228983 0.40010741 0
-0.051416725 0.56202829 0.39823881 0
-0.056252629 0.56176412 0.39447415 0
-0.074261934 0.56176752 0.38009605 0
-0.072985619 0.56270969 0.38108504 0
-0.076446272 0.56329638 0.37786764 0
-0.083638802 0.56303173 0.37212235 0
-0.087324306 0.5638088 0.36892387 0
-0.100657 0.56384468 0.35786831 0
-0.10178909 0.56273794 0.35704273 0
-0.11375703 0.56391364 0.34717813 0
-0.11253709 0.56321645 0.34825701 0
-0.11982527 0.56458282 0.34242845 0
-0.14501792 0.56440192 0.3214913 0
-0.15363556 0.56473702 0.315 0
-0.15710142 0.56521714 0.31193456 0
-0.16096744 0.56581718 0.30888039 0
-0.17610188 0.56562859 0.29679477 0
-0.18065317 0.56590647 0.29305109 0
-0.20446166 0.56659323 0.2733238 0
-0.21961676 0.56746018 0.26117668 0
-0.2249568 0.56800729 0.25673455 0
-0.24718776 0.56744301 0.23843315 0
-0.25567487 0.56840122 0.23159109 0
-0.25689474 0.56892014 0.23058793 0
0.13630244 0.55635369 0.55048984 0
0.11131796 0.55768377 0.5296486 0
0.10235115 0.55833572 0.52243161 0
0.10092876 0.55807793 0.52128959 0
0.085849822 0.55968016 0.50871414 0
0.076403603 0.55842108 0.50167996 0
0.075064525 0.5592255 0.50043398 0
0.069840305 0.56006473 0.49580196 0
0.039232049 0.55961961 0.47171044 0
0.031026978 0.56101996 0.46443594 0
0.0040402152 0.56235653 0.44284204 0
-0.0036417108 0.56264406 0.43719041 0
-0.0047888136 0.5616225 0.4364849 0
-0.019445797 0.56197435 0.42430195 0
-0.035557911 0.56365448 0.41104567 0
-0.047748387 0.56326324 0.40091065 0
-0.049018446 0.56402111 0.39985389 0
-0.09105745 0.56408286 0.36571819 0
-0.097025141 0.56481248 0.36086118 0
-0.1200442 0.56536192 0.34231827 0
-0.1485945 0.5669685 0.31835085 0
-0.20034562 0.56893682 0.27607179 0
-0.21020038 0.56920713 0.26823565 0
-0.21476042 0.56888175 0.26472664 0
-0.22335783 0.57011646 0.25755087 0
-0.24240136 0.56979364 0.24222201 0
0.11625668 0.55985808 0.53321922 0
0.11339471 0.55954552 0.53142405 0
0.10883638 0.56019902 0.5270322 0
0.10684247 0.56012154 0.52550542 0
0.024979498 0.56223524 0.45947132 0
0.020284904 0.56242532 0.45554408 0
0.012811666 0.56243938 0.44968349 0
0.0043081073 0.56409979 0.44260663 0
-0.026110506 0.56488663 0.41830051 0
-0.030624302 0.56487709 0.41448161 0
-0.031829238 0.56554306 0.4133285 0
-0.057130292 0.56530952 0.39302477 0
-0.05504154 0.56614643 0.39431724 0
-0.065736324 0.56629163 0.38612631 0
-0.075314388 0.56605816 0.37861091 0
-0.077481449 0.56600106 0.37655592 0
-0.080025345 0.56581306 0.37464753 0
-0.093248576 0.56751585 0.36335051 0
-0.11258271 0.56837004 0.34766093 0
-0.12306412 0.56834859 0.33891669 0
-0.13199909 0.56727803 0.33177727 0
-0.13794057 0.56768006 0.32701334 0
-0.14016974 0.56786013 0.32493144 0
-0.17447327 0.57005435 0.29707798 0
-0.18549162 0.56921291 0.28790078 0
-0.19063182 0.57079542 0.28352022 0
-0.18914944 0.56985593 0.28504905 0
-0.20285106 0.57069081 0.27446082 0
-0.22586744 0.57045031 0.25552982 0
-0.23989682 0.5722422 0.24381825 0
-0.25761306 0.57194757 0.22954731 0
0.12844932 0.56062806 0.54310328 0
0.1094686 0.56196952 0.52761495 0
0.082782134 0.56286204 0.50612855 0
0.066533312 0.56234294 0.49338368 0
0.043191291 0.5640226 0.47385171 0
0.023747297 0.56385058 0.45821118 0
0.0068821954 0.5656454 0.44441515 0
0.0044680685 0.56592661 0.44246864 0
0.00273648 0.56540298 0.44143838 0
-0.014474411 0.56623131 0.42693219 0
-0.014252245 0.56547576 0.427634 0
-0.032101139 0.56722718 0.41273937 0
-0.056400109 0.56690025 0.39330941 0
-0.062232599 0.56750256 0.38881606 0
-0.087855443 0.56829286 0.36767709 0
-0.11362526 0.56916159 0.34648791 0
-0.1214073 0.56957746 0.33986521 0
-0.13181148 0.57081175 0.33137068 0
-0.1483126 0.57038951 0.31798869 0
-0.17196921 0.57206947 0.29889736 0
-0.20789394 0.57344526 0.26921323 0
-0.22395881 0.57288975 0.25615004 0
-0.22667566 0.57335013 0.25439784 0
-0.24576811 0.57384932 0.23883873 0
-0.25236094 0.57487249 0.23310819 0
-0.25615513 0.57460922 0.23008524 0
0.069652341 0.56447351 0.49507797 0
0.055198062 0.56580836 0.48318335 0
0.04797221 0.56483769 0.4775185 0
0.038339593 0.56565195 0.46991608 0
0.036938384 0.5667249 0.46840772 0
0.032787673 0.56612098 0.46549749 0
0.020170599 0.56587666 0.45512539 0
-0.012375073 0.56691009 0.42882267 0
-0.013730752 0.56776553 0.42758805 0
-0.016439296 0.56716597 0.42571676 0
-0.01609055 0.56856483 0.42592669 0
-0.021132912 0.56868845 0.42161185 0
-0.027046973 0.56749004 0.41695225 0
-0.033167541 0.56787586 0.41196784 0
-0.046792783 0.56894428 0.40050551 0
-0.056368299 0.5686298 0.39308742 0
-0.093175568 0.57076603 0.36279321 0
-0.10048871 0.57051378 0.35687912 0
-0.11518366 0.57093012 0.34435686 0
-0.11721364 0.5720197 0.3437027 0
-0.11917257 0.57169449 0.34201238 0
-0.1329679 0.57164776 0.33044794 0
-0.16195141 0.57204211 0.30701983 0
-0.16301695 0.57294071 0.30582151 0
-0.17985788 0.57317615 0.29214516 0
-0.19641873 0.5733701 0.27826869 0
-0.19760528 0.57422686 0.27727968 0
-0.22381637 0.57470703 0.25603172 0
-0.22759849 0.57595867 0.25298515 0
-0.2312673 0.57490408 0.24996135 0
-0.23476905 0.57546699 0.24702883 0
-0.24450284 0.57618934 0.23875082 0
-0.2496932 0.57529181 0.23526093 0
-0.25719437 0.57541502 0.22878042 0
0.094454646 0.56634474 0.51458478 0
0.081091955 0.56539154 0.50428921 0
0.056586478 0.56656033 0.4839578 0
0.051748924 0.56769979 0.48032224 0
0.043581415 0.56786656 0.47378391 0
0.010754119 0.56770676 0.44712016 0
0.0094957892 0.56823379 0.44613811 0
0.0055485498 0.56837058 0.44335392 0
-0.012719473 0.56860179 0.4284147 0
-0.029426396 0.57069016 0.41457167 0
-0.034080572 0.57047921 0.41086483 0
-0.037459899 0.57068038 0.40783477 0
-0.036438204 0.5698154 0.40902308 0
-0.04558368 0.56983417 0.40147117 0
-0.051509239 0.57023305 0.39668298 0
-0.077604383 0.5716185 0.37509218 0
-0.089744776 0.57189113 0.3655 0
-0.10357867 0.57195258 0.35401824 0
-0.11537271 0.57268846 0.34457794 0
-0.14805119 0.57384992 0.31757501 0
-0.16007692 0.57499933 0.30773807 0
-0.1719754 0.57567114 0.29800469 0
-0.19012231 0.57601851 0.28305569 0
-0.20096156 0.57669199 0.27430829 0
-0.20227471 0.57583505 0.27349731 0
-0.20311855 0.57544512 0.27296579 0
-0.20396499 0.57644868 0.27174154 0
-0.2327472 0.57761246 0.24880284 0
0.13861156 0.56635892 0.55049032 0
0.10851096 0.56680292 0.52566862 0
0.097083092 0.5675149 0.51642692 0
0.059131898 0.56831926 0.48573741 0
0.048050787 0.56940907 0.47701031 0
0.043656159 0.56960148 0.47366911 0
0.040882614 0.56942052 0.47089791 0
0.038700003 0.56909508 0.46946892 0
0.026255658 0.57046247 0.45926532 0
0.01049864 0.57100981 0.44677797 0
0.0080677895 0.57075119 0.44509795 0
-0.02216424 0.57136965 0.42054966 0
-0.032756615 0.57134145 0.41176358 0
-0.037342113 0.57262391 0.40757495 0
-0.043302745 0.57177949 0.402729 0
-0.068725877 0.57274884 0.38262361 0
-0.070996538 0.57342303 0.38032341 0
-0.082121298 0.57426107 0.37077025 0
-0.10171518 0.57452667 0.35485816 0
-0.12124556 0.57516831 0.3393499 0
-0.12011507 0.57427675 0.33981651 0
-0.12258855 0.57608223 0.33862165 0
-0.12817824 0.57604533 0.3333236 0
-0.12693225 0.57509702 0.33407637 0
-0.12947284 0.57509154 0.33242106 0
-0.13644511 0.575427 0.32632768 0
-0.14663151 0.57654434 0.31798801 0
-0.1466299 0.57677287 0.3179535 0
-0.1480459 0.57565767 0.31718707 0
-0.15496176 0.57723057 0.3112292 0
-0.16513932 0.57623565 0.30330849 0
-0.20298991 0.57850069 0.27252218 0
-0.20793602 0.57881993 0.26840317 0
-0.21365997 0.57785356 0.26390067 0
-0.21789517 0.57861692 0.26050738 0
-0.22901879 0.57829779 0.25146756 0
-0.2569125 0.57907051 0.22825626 0
0.13593985 0.56807196 0.54794329 0
0.11462849 0.56888306 0.53065395 0
0.098233916 0.56848139 0.51726997 0
0.093636118 0.56915051 0.5131138 0
0.041529458 0.57117599 0.47121525 0
0.034618564 0.57183212 0.46595237 0
0.032368813 0.57165968 0.46409449 0
0.028780311 0.57080686 0.46122491 0
0.018589506 0.57230842 0.45272851 0
0.0094172684 0.57171816 0.44571456 0
-0.011651468 0.57327288 0.42855102 0
-0.02676294 0.57438213 0.41599402 0
-0.052371886 0.57515007 0.39508203 0
-0.068393461 0.57529575 0.38219175 0
-0.069103062 0.57502872 0.38163224 0
-0.070307523 0.57495838 0.38054714 0
-0.076606676 0.57481682 0.37558183 0
-0.087898694 0.57621527 0.36591417 0
-0.086942494 0.57516515 0.36702147 0
-0.09418568 0.57656783 0.36112207 0
-0.10738949 0.57687294 0.35037479 0
-0.12680125 0.57708257 0.33436829 0
-0.12933904 0.57688224 0.33215705 0
-0.13900572 0.57709557 0.32413384 0
-0.13973524 0.57683039 0.32339522 0
-0.15743232 0.57867026 0.3092359 0
-0.1753307 0.57980728 0.29458734 0
-0.18390357 0.57875526 0.28784105 0
-0.20354387 0.57997483 0.27172419 0
-0.21377233 0.58007979 0.26316023 0
-0.2174968 0.58055961 0.26011708 0
-0.22037828 0.58138561 0.25777796 0
-0.23733702 0.58080477 0.24438763 0
-0.25022563 0.582591 0.23360145 0
0.13613224 0.56974882 0.54766828 0
0.13353536 0.56960624 0.54566205 0
0.12648647 0.56966484 0.54005694 0
0.11991677 0.57042843 0.53420496 0
0.08634223 0.57112324 0.50775486 0
0.071199939 0.5720765 0.4951618 0
0.065386564 0.57119912 0.49045128 0
0.055938952 0.57309294 0.48256311 0
0.038806364 0.57255095 0.46869877 0
0.039966915 0.57359761 0.46936274 0
0.034773439 0.57350874 0.46576291 0
0.027666764 0.57333362 0.45989105 0
-0.0076125334 0.57495987 0.43164539 0
-0.0086789643 0.57392347 0.43099213 0
-0.018758409 0.57474232 0.422602 0
-0.041855197 0.57599616 0.40325624 0
-0.07424169 0.57675445 0.37727079 0
-0.10725585 0.57862139 0.35008559 0
-0.11473975 0.57827348 0.34339008 0
-0.13146132 0.57850593 0.32991076 0
-0.1352762 0.57896805 0.32695457 0
-0.14526053 0.58060014 0.31867734 0
-0.17761062 0.58137858 0.2923511 0
-0.18648456 0.58086646 0.28515345 0
-0.2174086 0.582304 0.25994831 0
-0.21853729 0.58316433 0.2589041 0
-0.23958555 0.58232391 0.24224856 0
-0.24761973 0.58295614 0.23538838 0
0.13233848 0.57051545 0.54479098 0
0.11988424 0.57216048 0.53431553 0
0.087699518 0.57199764 0.508497 0
0.074478596 0.57357937 0.49712282 0
0.07270588 0.57262665 0.49606329 0
0.050306439 0.5737319 0.47820157 0
0.038702421 0.57429147 0.46847865 0
0.02751255 0.57506663 0.45933455 0
0.007107513 0.57502389 0.44324711 0
-0.00013824296 0.57658023 0.4374361 0
-0.01553604 0.57585114 0.4249329 0
-0.013805371 0.57649261 0.42628151 0
-0.041806754 0.57776266 0.40307465 0
-0.043131236 0.57846165 0.40196681 0
-0.060811713 0.57926244 0.38757792 0
-0.098572433 0.58000606 0.3563602 0
-0.099895969 0.57895362 0.3557986 0
-0.13514757 0.58167642 0.32669759 0
-0.14520633 0.58238328 0.31852591 0
-0.14645688 0.5815317 0.31755671 0
-0.14893724 0.5817644 0.31552488 0
-0.19597505 0.58366489 0.27702698 0
-0.21600561 0.58497757 0.26061407 0
-0.22161338 0.58391404 0.25654757 0
-0.24396777 0.58571666 0.23790509 0
-0.24512801 0.58486676 0.23699193 0
-0.24761808 0.5846976 0.23515357 0
0.13128407 0.5731101 0.54352605 0
0.11689635 0.57418609 0.53094977 0
0.11181806 0.57360405 0.52739835 0
0.094725296 0.57345527 0.51361692 0
0.087164998 0.57400602 0.50784618 0
0.075648926 0.57449806 0.49809799 0
0.069845594 0.57586676 0.49289253 0
0.032456879 0.57672852 0.4633261 0
0.0058517661 0.57795495 0.44184306 0
-0.0063867699 0.57848096 0.43194386 0
-0.01281756 0.57919765 0.42711657 0
-0.014994704 0.57905644 0.42495611 0
-0.029214859 0.5794524 0.41322693 0
-0.070436776 0.58084625 0.37942994 0
-0.075004727 0.58134454 0.37514645 0
-0.097288698 0.5808146 0.35727635 0
-0.11957258 0.58306336 0.3392618 0
-0.12341948 0.58201796 0.33654839 0
-0.14391997 0.58335823 0.31904227 0
-0.17489621 0.58507299 0.29395932 0
-0.22238162 0.58661234 0.25527659 0
-0.2286119 0.58621025 0.25038913 0
0.13263583 0.57419312 0.544303 0
0.11552136 0.57507408 0.52995145 0
0.06387943 0.57686263 0.48775375 0
0.05823167 0.57724601 0.48335972 0
0.042941306 0.57771027 0.47163695 0
0.037729077 0.57734317 0.46716926 0
0.0037070457 0.57950753 0.4396078 0
-0.0076977243 0.57937551 0.43061987 0
-0.021635666 0.58048904 0.41896513 0
-0.03218111 0.58030444 0.41048372 0
-0.032156296 0.58030498 0.41051531 0
-0.060756329 0.58273137 0.38729811 0
-0.067597918 0.58227283 0.38122314 0
-0.071411461 0.58289039 0.37817675 0
-0.073977642 0.58202636 0.37634888 0
-0.076516181 0.58184576 0.37481329 0
-0.10215932 0.58394015 0.35319114 0
-0.11570977 0.58431154 0.34210575 0
-0.11693288 0.58345246 0.34115988 0
-0.12894519 0.58455116 0.33119577 0
-0.16323411 0.58555126 0.30322203 0
-0.1686341 0.58570582 0.29890999 0
-0.17855263 0.58597624 0.29063314 0
-0.18828082 0.58749259 0.28239086 0
-0.19466376 0.5863384 0.27802634 0
-0.19344258 0.58728701 0.27886981 0
-0.21019199 0.58698267 0.26517028 0
-0.22580685 0.58746046 0.25221947 0
-0.23269928 0.58842754 0.24668716 0
-0.24388251 0.58922809 0.23754591 0
0.13825178 0.57553256 0.54853773 0
0.11667645 0.57616448 0.53077751 0
0.0938894 0.57711929 0.51265591 0
0.071336187 0.57837754 0.49342856 0
0.065055951 0.57938683 0.48906446 0
0.043990452 0.58054537 0.47202677 0
0.025280189 0.57988083 0.4571903 0
0.022238804 0.58109862 0.45431447 0
-0.015959058 0.58192426 0.42358491 0
-0.017056469 0.58257079 0.42250714 0
-0.018312203 0.58154213 0.42174762 0
-0.020656401 0.58136404 0.41989273 0
-0.073720023 0.58467585 0.37585813 0
-0.079727039 0.58426952 0.37134367 0
-0.089096904 0.58432305 0.36373147 0
-0.10198711 0.58567321 0.35280216 0
-0.12747732 0.58719361 0.33210349 0
-0.13742444 0.58652765 0.32361609 0
-0.15296175 0.58808535 0.31086645 0
-0.17203897 0.58860099 0.29548731 0
-0.18606007 0.58946186 0.28441292 0
-0.2169155 0.58946019 0.25902289 0
-0.25071803 0.59099501 0.23151654 0
-0.25387165 0.59124696 0.22888197 0
0.10280777 0.57944322 0.51926082 0
0.044074044 0.58228713 0.47178489 0
0.018403705 0.58213741 0.45120904 0
0.0052087028 0.58220291 0.4403885 0
-0.01243895 0.5828712 0.42628372 0
-0.022732584 0.58487797 0.41742098 0
-0.045250952 0.58496958 0.39926845 0
-0.057552874 0.58462626 0.38893291 0
-0.071473934 0.5862574 0.37797442 0
-0.077173941 0.58605856 0.37308925 0
-0.082092248 0.5858947 0.36919475 0
-0.10304676 0.58673388 0.35180581 0
-0.10515842 0.58785635 0.34992561 0
-0.11201029 0.58845353 0.34475604 0
-0.13976504 0.58964902 0.32157341 0
-0.18209209 0.59008062 0.28714237 0
-0.21924804 0.59109539 0.25694355 0
0.12946109 0.57999539 0.54071194 0
0.11988292 0.57991612 0.53246778 0
0.11503748 0.58073682 0.52895325 0
0.10820204 0.58092886 0.52323037 0
0.1052791 0.58140051 0.52090555 0
0.10077231 0.58123881 0.516886 0
0.08994627 0.58057773 0.5089379 0
0.064266771 0.58211946 0.48766699 0
0.042732093 0.58317077 0.47078636 0
0.028405361 0.58455366 0.45834911 0
0.02700929 0.58361715 0.45794865 0
-0.0094432617 0.58621186 0.42813709 0
-0.013202758 0.58544868 0.42516512 0
-0.016774584 0.58625621 0.42207402 0
-0.018128149 0.58531094 0.42128575 0
-0.034824915 0.58700454 0.40727615 0
-0.036894199 0.58697671 0.40526676 0
-0.046494804 0.58749676 0.39790842 0
-0.047412619 0.58664918 0.39667889 0
-0.055067945 0.58809751 0.39044634 0
-0.055121794 0.58635783 0.39080918 0
-0.066315837 0.58843762 0.38131446 0
-0.071150899 0.58799338 0.37761769 0
-0.083447412 0.58884323 0.36772543 0
-0.097559609 0.58834296 0.35615942 0
-0.10620753 0.58876926 0.34878045 0
-0.12300168 0.58906305 0.33555251 0
-0.17111915 0.59125489 0.29580629 0
-0.18193977 0.59184498 0.28682759 0
-0.19663411 0.59330648 0.27480581 0
-0.21297702 0.59337479 0.26150736 0
-0.22499509 0.59381086 0.25172752 0
-0.23240021 0.59365094 0.24606949 0
-0.23817848 0.59465283 0.24113402 0
-0.24574679 0.59465826 0.23522538 0
-0.2439291 0.59543508 0.23588175 0
-0.24911062 0.59557694 0.23209085 0
-0.25236985 0.59563619 0.22929148 0
-0.25729671 0.5953539 0.22567622 0
0.13699315 0.58140039 0.54630947 0
0.085453868 0.58250982 0.5050934 0
0.077927321 0.58435947 0.49901319 0
0.071962431 0.5830518 0.494109 0
0.052875936 0.58466291 0.47828859 0
-0.043903895 0.5877381 0.39946881 0
-0.050040375 0.58806205 0.39458886 0
-0.063647494 0.58938622 0.38336241 0
-0.087334409 0.59012634 0.3641668 0
-0.089704394 0.59029764 0.36182848 0
-0.092171058 0.59034401 0.36013496 0
-0.12719089 0.59227473 0.33150718 0
-0.1432327 0.59287173 0.31821373 0
-0.16153392 0.59337819 0.30341557 0
-0.17597817 0.59324467 0.29160705 0
-0.18815944 0.59444141 0.28144479 0
-0.1963619 0.59502989 0.27464831 0
-0.20629194 0.59437335 0.26674464 0
-0.20731245 0.5954563 0.26569438 0
-0.22551996 0.59588969 0.25097626 0
-0.24652378 0.59751278 0.23399739 0
0.13794696 0.58245218 0.5470534 0
0.095394708 0.58426678 0.51294357 0
0.093567736 0.58503109 0.51122135 0
0.088443197 0.58441544 0.50675511 0
0.062105421 0.58557391 0.48534635 0
0.045581214 0.58671027 0.47223353 0
0.043085717 0.58653653 0.47030729 0
0.038403496 0.5875982 0.46628243 0
0.035666466 0.5863049 0.4645443 0
-0.010543326 0.58910263 0.4267835 0
-0.056147244 0.59119433 0.38918346 0
-0.061284322 0.59134626 0.38504478 0
-0.073575094 0.59088641 0.37511578 0
-0.1061663 0.5937683 0.3481898 0
-0.13258111 0.59396023 0.32629013 0
-0.17483377 0.59583998 0.29225814 0
-0.22000098 0.59745121 0.25503862 0
-0.23106016 0.59814727 0.246465 0
-0.23478292 0.59794933 0.24332266 0
0.13247555 0.58464754 0.54216498 0
0.073520303 0.58756614 0.49461702 0
0.068596773 0.58719593 0.49041286 0
0.03965123 0.58865696 0.46708989 0
0.03383822 0.58982348 0.4621124 0
0.030459624 0.5891366 0.45929542 0
0.028034762 0.58889854 0.45767835 0
0.018578371 0.59037888 0.45000312 0
0.014718134 0.58980447 0.44694039 0
0.0015366911 0.58982456 0.43640602 0
-0.0033491645 0.58971256 0.432569 0
-0.0044377488 0.59053671 0.43143642 0
-0.0068541579 0.59023201 0.42961761 0
-0.0081365611 0.59106475 0.42861259 0
-0.0137667 0.59157282 0.42359778 0
-0.038842406 0.59284759 0.40289944 0
-0.046533477 0.59140807 0.39670646 0
-0.062196329 0.59348094 0.38367042 0
-0.063472137 0.59262717 0.38278061 0
-0.083002709 0.59421086 0.36662957 0
-0.082069315 0.59344184 0.36782771 0
-0.098563097 0.59436429 0.35427839 0
-0.1442312 0.59542781 0.31707713 0
-0.14899442 0.59632254 0.31265309 0
-0.15512668 0.59719872 0.30767471 0
-0.17342947 0.59672403 0.29310289 0
-0.17576107 0.59846258 0.29099491 0
-0.18221223 0.59878927 0.28562757 0
-0.18221071 0.59703928 0.28587648 0
-0.23097719 0.59990579 0.24622923 0
-0.23201205 0.60072249 0.24498145 0
-0.24799547 0.60105807 0.23215114 0
0.12421879 0.58623338 0.53554964 0
0.10828859 0.58694279 0.52240521 0
0.10701914 0.58776742 0.52144319 0
0.080527365 0.58798498 0.50048023 0
0.06866242 0.58899969 0.49025062 0
0.059381504 0.58961457 0.48227188 0
0.013532612 0.59248459 0.44551033 0
0.01152405 0.59230804 0.44365931 0
0.0066578258 0.59193242 0.43985131 0
-0.0092768464 0.59174496 0.42750964 0
-0.013965317 0.5934146 0.42326301 0
-0.052015137 0.59486759 0.39239633 0
-0.087729357 0.59570813 0.36272994 0
-0.10337712 0.59585828 0.35004982 0
-0.12655294 0.59731138 0.3305521 0
-0.14167705 0.59729058 0.31864056 0
-0.14059041 0.5980621 0.31948835 0
-0.16989514 0.59962523 0.29567909 0
-0.18340415 0.5996629 0.28461152 0
-0.18555404 0.59997034 0.28272504 0
-0.1890853 0.60050189 0.27942833 0
-0.20091163 0.59986979 0.2703521 0
-0.20804313 0.60089952 0.26414406 0
-0.2209141 0.60198694 0.25376359 0
-0.22589311 0.60185105 0.25004545 0
0.13336095 0.58899957 0.5423187 0
0.084662691 0.59077924 0.50325841 0
0.079746008 0.5905301 0.49911416 0
0.069753692 0.59176809 0.49080876 0
0.060538352 0.59081846 0.48338145 0
0.047114339 0.59130007 0.47284895 0
0.039920092 0.59252053 0.46660358 0
0.034083877 0.5933072 0.46189982 0
0.030688468 0.59262091 0.45911843 0
0.019072201 0.59261012 0.44966859 0
0.013661831 0.59422547 0.44531581 0
0.0053781415 0.59442645 0.43840447 0
-0.010252121 0.59455085 0.42600706 0
-0.011378847 0.59360754 0.42500755 0
-0.012682108 0.59427434 0.42415294 0
-0.013795974 0.59516209 0.42308694 0
-0.019193649 0.59430754 0.41891983 0
-0.021474577 0.59421796 0.41669118 0
-0.022610195 0.59508878 0.41582522 0
-0.043406337 0.5962441 0.39870396 0
-0.057517514 0.5955025 0.38729274 0
-0.06825617 0.59594375 0.37859294 0
-0.075285889 0.59740901 0.37239778 0
-0.084100425 0.596892 0.36526579 0
-0.096114889 0.59816343 0.35544828 0
-0.097174302 0.59889054 0.35432464 0
-0.097187407 0.59715676 0.354581 0
-0.10699549 0.59807134 0.34670487 0
-0.1278479 0.60008419 0.32934523 0
-0.14036654 0.59980732 0.31925675 0
-0.13954499 0.59892839 0.32040122 0
-0.17307127 0.600537 0.29271516 0
-0.1881052 0.60184687 0.27968904 0
-0.20177035 0.60247314 0.26917127 0
-0.22920386 0.60275531 0.24687915 0
-0.25361755 0.60382658 0.2273469 0
0.10431835 0.59166336 0.51835829 0
0.099599689 0.59126854 0.51456422 0
0.092216052 0.59264868 0.50888336 0
0.069808513 0.59351349 0.49066281 0
0.050927036 0.59405333 0.47505251 0
0.0519168 0.59324974 0.47653845 0
0.048554782 0.59391236 0.47322604 0
0.034172174 0.59504813 0.46171835 0
0.016718671 0.59426808 0.44773602 0
0.011561162 0.59585834 0.44313237 0
-0.0018816439 0.59576428 0.43240035 0
-0.010148766 0.59628302 0.4257125 0
-0.011352036 0.59708208 0.42466226 0
-0.03265376 0.59778118 0.40688446 0
-0.04927269 0.59848934 0.39356935 0
-0.11221343 0.6009208 0.34216335 0
-0.11437218 0.60124665 0.33991024 0
-0.12287552 0.60021728 0.33344266 0
-0.12797001 0.60177952 0.32901511 0
-0.13489659 0.60141313 0.32374111 0
-0.13495952 0.60131431 0.32367492 0
-0.14239614 0.60149777 0.31690562 0
-0.15279576 0.60290116 0.30918148 0
-0.17303181 0.60403138 0.29215056 0
-0.18803374 0.60361278 0.27947178 0
-0.1980208 0.60333854 0.27158415 0
0.10640925 0.59328514 0.5201571 0
0.10451342 0.59343439 0.51801854 0
0.10193697 0.59325516 0.51619762 0
0.083566688 0.59330755 0.50178885 0
0.075493194 0.59380507 0.49515438 0
0.069888324 0.5952608 0.49038312 0
0.055516291 0.59595931 0.47879255 0
0.018146623 0.59686458 0.44799635 0
0.0081197117 0.59643632 0.44020578 0
-0.022943456 0.59792304 0.41475022 0
-0.041906346 0.5989204 0.39935905 0
-0.041998666 0.59889144 0.3993516 0
-0.040627737 0.59980512 0.40028128 0
-0.04924649 0.60039115 0.39353934 0
-0.057306774 0.60078347 0.38675895 0
-0.10550112 0.60246319 0.34686646 0
-0.11091821 0.60180283 0.34300599 0
-0.11327966 0.60184306 0.34105384 0
-0.11910025 0.60277128 0.33615446 0
-0.11923948 0.60274607 0.33607313 0
-0.1290596 0.60252017 0.32796717 0
-0.14692782 0.60387504 0.31322429 0
-0.15472186 0.60362357 0.30714124 0
-0.18588448 0.60553783 0.28163791 0
-0.20413128 0.60561955 0.26678151 0
-0.23759158 0.60713029 0.23929399 0
-0.2436422 0.60772842 0.23434897 0
-0.25808412 0.60837114 0.22252996 0
0.13236381 0.59336239 0.54056877 0
0.12885763 0.59449488 0.53769797 0
0.12744185 0.59350318 0.53705478 0
0.12633497 0.59438145 0.53580946 0
0.11802777 0.59336317 0.52937818 0
0.084920317 0.59584498 0.50233817 0
0.079036966 0.59659243 0.49727046 0
0.067927718 0.59659058 0.48809665 0
0.036247686 0.59738588 0.46269232 0
0.027577098 0.5988031 0.45542693 0
0.026556494 0.59795368 0.45454869 0
0.025513949 0.59888428 0.45348594 0
0.012644795 0.59858686 0.4438788 0
0.0032140506 0.59961647 0.436001 0
-0.0026929993 0.60010844 0.4309746 0
-0.0053783958 0.60024464 0.42911741 0
-0.030344781 0.60107541 0.40879306 0
-0.044112828 0.60058701 0.39712673 0
-0.08415994 0.60207707 0.36442652 0
-0.12280038 0.60474938 0.33257264 0
-0.13462558 0.60496455 0.32311279 0
-0.15384266 0.60546839 0.30770522 0
-0.15618902 0.6053015 0.30553168 0
-0.16425684 0.60661441 0.29859176 0
-0.16798922 0.60742038 0.29556221 0
-0.1716672 0.6068086 0.29268596 0
-0.20756572 0.6078794 0.26353434 0
-0.21110868 0.60886908 0.26048627 0
-0.21370433 0.6089431 0.2581881 0
-0.21487555 0.60789514 0.25745302 0
-0.24007194 0.60892355 0.23684658 0
0.12051239 0.5950433 0.53098232 0
0.11704415 0.59588218 0.5280351 0
0.092779838 0.59619904 0.50825119 0
0.07900843 0.59832627 0.49703532 0
0.076453656 0.59800315 0.4954184 0
0.054634824 0.59858972 0.47743168 0
0.052283879 0.5985409 0.47499928 0
0.049647033 0.59879112 0.4735353 0
0.021850312 0.59949106 0.45068404 0
0.018333485 0.60036868 0.44746843 0
0.0045782127 0.60043216 0.43680862 0
-0.004711763 0.60141432 0.42948928 0
-0.0075281789 0.60207027 0.4271166 0
-0.042842083 0.60327309 0.39797547 0
-0.048266511 0.60262585 0.3942728 0
-0.086427718 0.60545987 0.36224505 0
-0.10158439 0.60552585 0.34930032 0
-0.11849307 0.60708445 0.33569679 0
-0.1228002 0.60660839 0.33232677 0
-0.12640563 0.60715479 0.3295559 0
-0.14017104 0.60709137 0.31845111 0
-0.16174451 0.60862231 0.30051968 0
-0.17243446 0.60905397 0.29158509 0
-0.17647016 0.60826623 0.28880095 0
-0.17870438 0.60978603 0.28703725 0
-0.20095828 0.61084151 0.26846576 0
-0.21095383 0.61077768 0.26032448 0
-0.23781422 0.61087471 0.23869666 0
-0.24252275 0.61216509 0.23467024 0
-0.24136978 0.6112439 0.23562953 0
-0.24727137 0.61170882 0.23086512 0
-0.24885023 0.61278504 0.22990352 0
0.13965115 0.59585029 0.54623371 0
0.12891477 0.5965097 0.53741306 0
0.12910271 0.59800088 0.53726822 0
0.12641558 0.59786981 0.53546727 0
0.12430629 0.59793055 0.53349352 0
0.09715803 0.59903467 0.5114488 0
0.095836826 0.59807998 0.51075447 0
0.077752285 0.59908766 0.49578232 0
0.072667137 0.60035372 0.49190882 0
0.017105805 0.60263956 0.44649234 0
-0.0019868305 0.60298234 0.43093884 0
-0.0058433218 0.6022808 0.42842019 0
-0.012350761 0.6033237 0.42316481 0
-0.016960492 0.60280526 0.41938496 0
-0.053573519 0.60547596 0.38862121 0
-0.064593166 0.60640585 0.37986848 0
-0.069323547 0.6059522 0.37593663 0
-0.085018709 0.60638565 0.36286718 0
-0.099523187 0.60764998 0.35083416 0
-0.10545535 0.60763544 0.34631833 0
-0.11038157 0.60789979 0.34200391 0
-0.11553673 0.6078015 0.33821195 0
-0.11839334 0.60778177 0.33580232 0
-0.14794199 0.60961956 0.31122658 0
-0.17125046 0.60996974 0.29248777 0
-0.17750883 0.61088002 0.28752843 0
-0.18187869 0.61064863 0.28400767 0
-0.18563519 0.61166596 0.2808747 0
-0.19739492 0.61190408 0.271193 0
-0.19841295 0.61094207 0.27031705 0
-0.21416324 0.61217034 0.25715968 0
-0.21204177 0.61178935 0.25930244 0
-0.21784304 0.61308032 0.25435612 0
-0.23008306 0.61396194 0.24437304 0
-0.24141397 0.61309487 0.23555493 0
0.099595919 0.60066062 0.51314217 0
0.094829261 0.60063392 0.50950754 0
0.089737028 0.60112292 0.50517631 0
0.06198338 0.60257715 0.48241296 0
0.058488145 0.60280931 0.47991389 0
0.052451156 0.60185772 0.4745124 0
0.047568802 0.60225308 0.47073135 0
0.041524731 0.60243821 0.46621439 0
0.036508814 0.60263926 0.46245578 0
0.0095638577 0.60436857 0.44011769 0
0.0046500918 0.60396552 0.43653077 0
-0.054532208 0.60802245 0.38739207 0
-0.07529512 0.60822123 0.37027678 0
-0.079197556 0.6076147 0.36769748 0
-0.085645407 0.60889041 0.36179522 0
-0.10544038 0.60938674 0.34609008 0
-0.10776252 0.60899526 0.34421286 0
-0.12885556 0.61037201 0.32721019 0
-0.13848624 0.6107319 0.31927034 0
-0.16787764 0.61272389 0.29500586 0
-0.18292332 0.61319983 0.28264201 0
-0.20232861 0.61336941 0.26672989 0
-0.20107263 0.6143446 0.26745448 0
-0.22024782 0.61464214 0.25227109 0
-0.22259483 0.61449391 0.25023636 0
-0.23636359 0.61620009 0.23901139 0
0.12099725 0.60031879 0.53033078 0
0.10764676 0.60167396 0.51962334 0
0.10460655 0.60108715 0.51702714 0
0.10215388 0.60112625 0.51517403 0
0.077966973 0.60312784 0.49558643 0
0.05089077 0.60350513 0.47329256 0
0.030014973 0.6046167 0.45649478 0
0.031155109 0.60551065 0.45742831 0
0.017454231 0.6048041 0.44620863 0
0.0068357317 0.60658056 0.43770152 0
-0.0032317128 0.60741293 0.4295423 0
-0.011989163 0.60667038 0.42261925 0
-0.016232543 0.6080634 0.41845563 0
-0.026193542 0.60727036 0.41083708 0
-0.029435964 0.60803616 0.40762424 0
-0.052242607 0.60809243 0.38918972 0
-0.070643641 0.61020064 0.37427458 0
-0.1069622 0.61197263 0.34474576 0
-0.12144135 0.61270911 0.33276537 0
-0.12625802 0.61241651 0.32907519 0
-0.12813409 0.6115284 0.32761958 0
-0.14280766 0.61207449 0.31543395 0
-0.16058096 0.61329532 0.30064034 0
-0.18913996 0.61541229 0.27751863 0
-0.20603059 0.6151095 0.26317865 0
-0.22986037 0.6174702 0.24394242 0
-0.23210491 0.61744153 0.24198265 0
-0.23991655 0.61718649 0.23610294 0
-0.24581943 0.61806834 0.23095216 0
-0.2433452 0.61664951 0.23318662 0
-0.24709257 0.61696047 0.23026197 0
0.13286816 0.60249156 0.5395245 0
0.13161364 0.60162354 0.53871965 0
0.12807694 0.60238534 0.53580439 0
0.1246837 0.60315692 0.53265697 0
0.11697538 0.60368288 0.52648085 0
0.11137762 0.60388625 0.52220297 0
0.10465579 0.60282266 0.51684731 0
0.098620713 0.60329711 0.51190567 0
0.082559973 0.6052236 0.49890271 0
0.078046292 0.60486889 0.49522087 0
0.069254115 0.60532582 0.48790711 0
0.036801822 0.60612822 0.46192914 0
0.024093116 0.6063441 0.45149702 0
0.01268663 0.60799325 0.44115323 0
-0.00077805511 0.60781109 0.43118688 0
-0.016454244 0.60979515 0.41830793 0
-0.022194544 0.6101197 0.41345671 0
-0.049766481 0.61140156 0.39116406 0
-0.068293102 0.61199987 0.37576488 0
-0.074147426 0.61096722 0.37106687 0
-0.096099392 0.61245453 0.35332909 0
-0.10553064 0.61291128 0.34551993 0
-0.11889032 0.61452645 0.33444417 0
-0.14166805 0.61542445 0.31527135 0
-0.17813368 0.61548066 0.28590125 0
-0.18038802 0.61681682 0.28430006 0
0.13884534 0.60386735 0.54414123 0
0.13168705 0.60333753 0.53858107 0
0.12325987 0.60456175 0.53142768 0
0.11853616 0.60394585 0.52814168 0
0.11585407 0.60454738 0.52543789 0
0.1147325 0.60541153 0.52438396 0
0.081601515 0.60606515 0.49781135 0
0.070596062 0.6060226 0.4888303 0
0.068277016 0.60775733 0.48687664 0
0.051539242 0.60723007 0.47367001 0
0.028765442 0.60877675 0.45474893 0
0.024232548 0.60823226 0.45121312 0
0.016376216 0.60923654 0.44433236 0
0.015174799 0.60994422 0.44325981 0
-0.014035398 0.60996455 0.41983971 0
-0.030596349 0.61083066 0.40632597 0
-0.037522316 0.61263245 0.40081432 0
-0.066032365 0.61231905 0.37753737 0
-0.073972762 0.61270452 0.37083146 0
-0.07623066 0.61439592 0.3687405 0
-0.090318725 0.61496466 0.35709623 0
-0.097965896 0.61394393 0.35134059 0
-0.12001365 0.6153847 0.33350787 0
-0.1299601 0.61580127 0.32522824 0
-0.13630036 0.61666489 0.3199904 0
-0.14488631 0.61641967 0.31301478 0
-0.17135105 0.61839974 0.29122952 0
-0.18629758 0.61900717 0.27873778 0
-0.20715883 0.61959356 0.26207209 0
-0.25434312 0.62120664 0.22352242 0
0.13192897 0.60508376 0.53825843 0
0.12682849 0.60522729 0.53434736 0
0.12008993 0.60636747 0.5285359 0
0.11867811 0.60717887 0.52747399 0
0.10004336 0.6078546 0.51229078 0
0.089799874 0.60849279 0.50378829 0
0.084762141 0.60818768 0.5000304 0
0.080569506 0.60861313 0.49654549 0
0.067183301 0.60864335 0.4858053 0
0.060261447 0.60958284 0.47981468 0
0.05847143 0.60991967 0.47840366 0
0.051665161 0.60897279 0.47361746 0
0.040871568 0.61058021 0.46407911 0
0.013858614 0.61037564 0.44221401 0
0.005245307 0.61124068 0.43548086 0
-0.00056913664 0.6119352 0.43063349 0
-0.0024251689 0.61246508 0.42898533 0
-0.014283004 0.61177474 0.41963077 0
-0.016813044 0.61310315 0.41784567 0
-0.037510168 0.61436647 0.40060133 0
-0.091672331 0.61554819 0.35615605 0
-0.094555497 0.61691546 0.35382771 0
-0.10257023 0.61659735 0.34685728 0
-0.11483102 0.61735404 0.33687961 0
-0.13172162 0.61770481 0.32318562 0
-0.13775037 0.61738855 0.31848663 0
-0.13968411 0.61827505 0.31639564 0
-0.15559408 0.61884564 0.30360803 0
-0.16567481 0.62027931 0.29508689 0
-0.19451632 0.62161034 0.27148071 0
-0.22855273 0.62187928 0.24438043 0
0.12481603 0.60714442 0.53209865 0
0.086033985 0.60907614 0.50097454 0
0.074533962 0.61044568 0.49144724 0
0.055574741 0.61168116 0.47574934 0
0.036272977 0.61278731 0.46005607 0
0.024156608 0.61277556 0.45021236 0
0.012483043 0.61316365 0.44085717 0
-0.01188737 0.61376882 0.42142409 0
-0.010763669 0.61478913 0.42222595 0
-0.066894181 0.61673373 0.37626654 0
-0.088055015 0.61802876 0.35856003 0
-0.090453222 0.61833167 0.3563506 0
-0.0978356 0.61908269 0.3504298 0
-0.10138516 0.61776662 0.34763891 0
-0.1172435 0.61893845 0.33488172 0
-0.13050556 0.61901361 0.32391655 0
-0.15324201 0.62091029 0.30413157 0
-0.15270691 0.62036151 0.30567145 0
-0.15678215 0.62145782 0.30236641 0
-0.17176023 0.62252307 0.29022053 0
-0.20574972 0.62339085 0.26244187 0
-0.22690304 0.62433618 0.24558102 0
-0.24708194 0.62533551 0.22850701 0
0.13562608 0.6096732 0.54054183 0
0.10654391 0.61032367 0.51718211 0
0.087267652 0.61167276 0.50156885 0
0.063854843 0.61281019 0.48244604 0
0.052071422 0.61246061 0.47321916 0
0.035107654 0.61363977 0.4590852 0
0.014922458 0.61506879 0.44245958 0
0.011308634 0.61406547 0.43993497 0
0.0066526909 0.61543971 0.43594161 0
0.0054331264 0.61441249 0.4350884 0
-0.001301587 0.61482751 0.4295812 0
-0.014441845 0.61678338 0.41908294 0
-0.028560216 0.61717087 0.40664715 0
-0.039446488 0.61772954 0.39805466 0
-0.051605832 0.61873937 0.38807344 0
-0.072361603 0.61890763 0.37116614 0
-0.074537076 0.61939222 0.36922586 0
-0.11608903 0.62007469 0.33583832 0
-0.1232098 0.62157655 0.32975379 0
-0.12215204 0.62052816 0.3311547 0
-0.12822184 0.62130737 0.32562727 0
-0.13335279 0.62236786 0.32088491 0
-0.13478322 0.6222983 0.31984949 0
-0.16076314 0.62261742 0.29925504 0
-0.16351664 0.62365896 0.2960892 0
-0.19694614 0.62518835 0.26921326 0
-0.19587931 0.62411767 0.27040502 0
-0.20538749 0.62565875 0.26232377 0
-0.21295215 0.62567741 0.25643361 0
-0.23454124 0.62666684 0.23897339 0
-0.24168372 0.62758851 0.23266065 0
-0.25078341 0.6277355 0.22525854 0
0.13477875 0.61056274 0.5392828 0
0.13220385 0.61065829 0.53755981 0
0.11681032 0.6114341 0.52501631 0
0.099359505 0.61242133 0.51071858 0
0.063894473 0.61455548 0.48224616 0
0.051103789 0.61489093 0.47176942 0
0.034185007 0.61597216 0.45779732 0
0.028513258 0.61643636 0.45284009 0
0.023383169 0.6154384 0.44904852 0
0.0095903259 0.61663407 0.43798298 0
0.008453941 0.61737281 0.43682247 0
0.00046486472 0.61772192 0.43078902 0
-0.0048332657 0.61801291 0.42644912 0
-0.013832506 0.61873388 0.41880456 0
-0.015429855 0.61770368 0.41750336 0
-0.01672028 0.61820602 0.41677386 0
-0.017981319 0.61729515 0.41603866 0
-0.02736707 0.61839473 0.4074311 0
-0.031167472 0.61834538 0.40449551 0
-0.041573755 0.61919141 0.39605454 0
-0.041813739 0.6191873 0.39601243 0
-0.053835969 0.62031084 0.38605258 0
-0.060397223 0.619488 0.38050419 0
-0.068009153 0.62095153 0.37444606 0
-0.087895289 0.6220234 0.35789537 0
-0.15764447 0.62423265 0.30095249 0
-0.17157491 0.62589771 0.2898643 0
-0.17748606 0.62597007 0.28510988 0
-0.23699763 0.62808603 0.23677672 0
-0.25352949 0.63031316 0.22243835 0
0.13451491 0.61230046 0.5393157 0
0.10695191 0.6137895 0.51655978 0
0.086161584 0.61419535 0.50032705 0
0.071350053 0.61498845 0.48823798 0
0.060258918 0.61608332 0.47917405 0
0.048773948 0.61680323 0.4691954 0
0.020838013 0.61850786 0.4462513 0
0.018887809 0.61760342 0.44501296 0
-0.001715605 0.6194005 0.42820513 0
-0.016894117 0.62057382 0.41566327 0
-0.019083118 0.62071455 0.41389444 0
-0.018352207 0.62051976 0.41450268 0
-0.025249233 0.62036556 0.40904543 0
-0.030345708 0.6211682 0.40516126 0
-0.036837805 0.6212917 0.39967513 0
-0.073032349 0.62242573 0.36972818 0
-0.084194422 0.62394363 0.36069992 0
-0.086622231 0.62281793 0.35897166 0
-0.094185092 0.62386256 0.35292628 0
-0.11507677 0.6244458 0.33619821 0
-0.11606405 0.62526298 0.33488381 0
-0.12952206 0.62606412 0.32375374 0
-0.14394882 0.62549657 0.3118054 0
-0.15276535 0.62580305 0.30498075 0
-0.15383184 0.62673235 0.30376261 0
-0.15504226 0.62734246 0.30262944 0
-0.20732412 0.62952965 0.25963566 0
-0.21527544 0.62891126 0.25374439 0
-0.22408029 0.6300199 0.24658768 0
-0.22791381 0.63065934 0.24352904 0
-0.23415458 0.6295929 0.238794 0
0.14172933 0.61454445 0.54438514 0
0.13236819 0.61410981 0.53723013 0
0.13397409 0.61395574 0.53867698 0
0.11692709 0.61495769 0.52457637 0
0.096990377 0.61579561 0.50839734 0
0.088773176 0.61638528 0.50191951 0
0.074162588 0.61760998 0.48990482 0
0.054948281 0.61793125 0.47415933 0
0.051287957 0.61862391 0.4709411 0
0.047464278 0.61865968 0.46830922 0
0.02599841 0.61901414 0.45075688 0
0.011898485 0.62064594 0.43901476 0
0.010572161 0.61982268 0.43815482 0
0.00030674192 0.61998236 0.43015334 0
-0.0064310064 0.62168342 0.42434108 0
-0.026397208 0.62296629 0.40800479 0
-0.032468423 0.62268859 0.40343112 0
-0.033607345 0.62180167 0.40231228 0
-0.035736419 0.62279779 0.40048495 0
-0.038209353 0.62228876 0.39847729 0
-0.039294012 0.6229741 0.39749837 0
-0.044145141 0.62252879 0.39368218 0
-0.06092621 0.6241625 0.37931615 0
-0.067793012 0.6245985 0.3740786 0
-0.076755583 0.62440705 0.36690915 0
-0.081701726 0.62439167 0.36246958 0
-0.12530383 0.62700039 0.32695591 0
-0.13898604 0.62739182 0.31591457 0
-0.14157328 0.62689358 0.31365752 0
-0.14768973 0.62797999 0.30861935 0
-0.15986201 0.6293608 0.29806104 0
-0.16643104 0.62941307 0.29315552 0
-0.16882557 0.62953061 0.29128253 0
-0.17126793 0.62945634 0.28927448 0
-0.17714079 0.62946469 0.28435156 0
-0.24375281 0.63249594 0.23038656 0
0.12749663 0.61578274 0.53311032 0
0.072788581 0.61814684 0.4889012 0
0.058509335 0.61953086 0.47660279 0
0.057350658 0.62008393 0.47563028 0
0.052652095 0.61944288 0.4720203 0
0.044998772 0.61995083 0.46611091 0
0.040369034 0.62130767 0.46188232 0
0.02134431 0.62079024 0.44671232 0
0.0088775838 0.62219948 0.43614259 0
0.0041843373 0.62263662 0.43261194 0
-0.011788299 0.62402952 0.41976246 0
-0.034838166 0.62408656 0.40094072 0
-0.037013818 0.62353551 0.39932695 0
-0.037177548 0.62523943 0.3989968 0
-0.070051596 0.62573719 0.37196624 0
-0.074340202 0.62627012 0.36861995 0
-0.087872654 0.6271472 0.35751078 0
-0.11011082 0.62851179 0.33876389 0
-0.12275888 0.62878603 0.32869709 0
-0.12848908 0.6283654 0.3237718 0
-0.12940109 0.62957329 0.32311088 0
-0.14998066 0.62972802 0.30644381 0
-0.15468934 0.63053954 0.30214536 0
-0.16604887 0.63141489 0.29276156 0
-0.16517705 0.63051218 0.29388851 0
-0.21008483 0.63284427 0.25723934 0
-0.21722817 0.63410312 0.25083995 0
-0.22112322 0.63318247 0.24848852 0
-0.22404125 0.63371319 0.24605268 0
-0.22528966 0.63450599 0.24497811 0
-0.25179425 0.63460046 0.22347412 0
0.14201729 0.61813474 0.54309285 0
0.11702701 0.61815435 0.52410537 0
0.0869634 0.61955613 0.49962947 0
0.081771746 0.62091786 0.49530888 0
0.080511972 0.62008286 0.4945524 0
0.052171193 0.62236089 0.47149295 0
-0.020720167 0.62508237 0.41249859 0
-0.044891108 0.62721401 0.39217475 0
-0.0558827 0.62734455 0.38290867 0
-0.067276329 0.62858307 0.37381968 0
-0.072006434 0.62870878 0.36964613 0
-0.076405518 0.62788928 0.36650985 0
-0.083024941 0.62864006 0.36084789 0
-0.088836312 0.62800741 0.35610399 0
-0.095317736 0.6287356 0.35113248 0
-0.10038956 0.62964725 0.34644887 0
-0.11552706 0.63057017 0.33451831 0
-0.12920754 0.63159078 0.32308823 0
-0.13170597 0.6311959 0.32102224 0
-0.13514227 0.6302352 0.31876937 0
-0.14601602 0.63234389 0.3092635 0
-0.15768769 0.63138646 0.29970881 0
-0.17944162 0.63414943 0.28183657 0
-0.18068093 0.63325453 0.28095084 0
-0.18419734 0.63392627 0.27795833 0
-0.19047186 0.63383067 0.27253968 0
-0.22383451 0.63549423 0.24579005 0
-0.2290587 0.6354115 0.24185181 0
-0.25741488 0.63705671 0.21840301 0
0.14054425 0.61892271 0.54275262 0
0.12798388 0.61913043 0.53279549 0
0.11941558 0.62032568 0.52583939 0
0.1171324 0.62005168 0.52389473 0
0.11215851 0.61996716 0.519858 0
0.10134016 0.62026864 0.51107711 0
0.10021207 0.62079525 0.51024002 0
0.082857013 0.62197328 0.49619016 0
0.067966819 0.62215269 0.48408175 0
0.061271809 0.62305993 0.47838268 0
0.055694193 0.62251985 0.47452581 0
0.051032089 0.62342763 0.47011095 0
0.048220694 0.62323278 0.46826115 0
0.042875737 0.62336397 0.46368462 0
0.035742886 0.62398124 0.45758951 0
0.030989783 0.62547618 0.45366761 0
0.021736506 0.62435889 0.44620693 0
0.014472015 0.62462437 0.44051576 0
-0.0051052868 0.62577683 0.4247852 0
-0.01093691 0.62759137 0.41980109 0
-0.013351461 0.62732476 0.41790506 0
-0.028771354 0.62821025 0.40512234 0
-0.034613837 0.62871349 0.40028039 0
-0.061048899 0.62834924 0.37878031 0
-0.10698979 0.63175929 0.34114623 0
-0.11011265 0.63209337 0.33840141 0
-0.10877594 0.63122571 0.33935589 0
-0.11297404 0.63241631 0.33595082 0
-0.11643893 0.63138247 0.33354014 0
-0.13626982 0.63278592 0.31736651 0
-0.1497283 0.63316292 0.30645448 0
-0.17374407 0.63453466 0.28675592 0
-0.18052915 0.63507348 0.28075558 0
-0.21887079 0.63663286 0.24977127 0
-0.23764895 0.63750112 0.23428938 0
-0.25046846 0.63926339 0.22397292 0
0.13175443 0.62200469 0.53520507 0
0.10999914 0.62260729 0.5178445 0
0.099104553 0.62375373 0.5089702 0
0.08654651 0.62291187 0.49900481 0
0.061476614 0.62481183 0.47833818 0
0.056344081 0.62512547 0.47417101 0
0.051248487 0.62518859 0.47016877 0
0.038144872 0.62599039 0.45942417 0
0.018118707 0.62756824 0.44288772 0
0.014410839 0.62809426 0.44013077 0
-0.00048678101 0.62769461 0.42757821 0
-0.00848985 0.62801749 0.42175266 0
-0.031983059 0.62908959 0.40220445 0
-0.080695912 0.63189822 0.36246622 0
-0.11650853 0.63309336 0.33290872 0
-0.12349971 0.6349622 0.3267822 0
-0.12894097 0.63375324 0.32292154 0
-0.13507636 0.63403583 0.317974 0
-0.13837183 0.63451928 0.31465229 0
-0.15999763 0.63645154 0.29720488 0
-0.16581851 0.63683647 0.29216003 0
-0.18288326 0.63671452 0.27855504 0
-0.19973968 0.63853979 0.2643764 0
-0.20097336 0.63748389 0.26362771 0
-0.22715496 0.63976359 0.24241231 0
-0.23747484 0.63927686 0.23404634 0
-0.25033909 0.64104074 0.22369647 0
0.13694772 0.6235705 0.53926051 0
0.11387073 0.6235894 0.52044511 0
0.095544383 0.62431294 0.5058673 0
0.076426238 0.62649822 0.48988518 0
0.075133204 0.62572646 0.48939201 0
0.062565401 0.62581885 0.47895017 0
0.060149238 0.62743366 0.47693658 0
0.021605199 0.62877244 0.44538626 0
0.0078863259 0.63011396 0.43435988 0
0.006556367 0.62919813 0.43338415 0
-0.0035616178 0.63047183 0.42521247 0
-0.01443556 0.62991875 0.41669041 0
-0.027123477 0.63055187 0.40648788 0
-0.033480674 0.6316582 0.40048391 0
-0.043850288 0.63120925 0.39231002 0
-0.044682808 0.63274807 0.39134267 0
-0.055066906 0.6326673 0.38283589 0
-0.061419114 0.63291198 0.37783563 0
-0.08161255 0.63446558 0.36108848 0
-0.097079024 0.63510633 0.34849438 0
-0.099104315 0.63521147 0.34658885 0
-0.12862067 0.63554323 0.32281232 0
-0.13729025 0.6372025 0.31552401 0
-0.13614242 0.63641888 0.31674895 0
-0.1719254 0.63906872 0.28723717 0
-0.21364412 0.6406399 0.25290391 0
-0.214899 0.64136952 0.25180689 0
-0.25511232 0.64235878 0.21966726 0
0.13565654 0.6242789 0.53798252 0
0.12465986 0.62539601 0.52929765 0
0.12489285 0.62509108 0.52935773 0
0.12483905 0.62507385 0.52933395 0
0.11742151 0.62467748 0.52368534 0
0.09694621 0.62705183 0.5066824 0
0.071810901 0.62803519 0.48555601 0
0.05457348 0.62815928 0.47256443 0
0.026305502 0.63059866 0.44921184 0
0.023620531 0.63031238 0.4469569 0
0.018342407 0.63097769 0.44246492 0
0.011807449 0.63165104 0.43750229 0
0.0032297673 0.63144213 0.42999932 0
-0.018904407 0.63332993 0.41213924 0
-0.0309183 0.63350564 0.40253258 0
-0.033331335 0.6334058 0.4006246 0
-0.034415934 0.63419378 0.39956078 0
-0.038160443 0.63301444 0.39655569 0
-0.04319825 0.63354385 0.39232406 0
-0.060163554 0.63409513 0.37867337 0
-0.080549076 0.63540649 0.36217943 0
-0.085224703 0.63537562 0.3580415 0
-0.086171791 0.63613576 0.35695255 0
-0.105809 0.63611853 0.3411721 0
-0.11869236 0.6384244 0.33054429 0
-0.12732573 0.63829333 0.32360849 0
-0.14590953 0.63935679 0.30827892 0
-0.1597002 0.6400438 0.29656807 0
-0.16860776 0.63974947 0.2898297 0
-0.16988449 0.64088833 0.28846449 0
-0.17125843 0.64016318 0.2875284 0
-0.18069392 0.64060658 0.28003529 0
-0.18191347 0.64133883 0.27913144 0
-0.18277617 0.64021748 0.2781027 0
-0.19727235 0.64133871 0.26604337 0
-0.20867179 0.64287114 0.25653955 0
-0.21239275 0.64172679 0.25366163 0
-0.21377566 0.6421842 0.25265762 0
-0.21726716 0.64311612 0.24980366 0
-0.22240129 0.64296377 0.24595821 0
-0.22344191 0.64379662 0.24484463 0
0.13875785 0.62629586 0.54015517 0
0.1361703 0.62634611 0.5380621 0
0.13198982 0.62729371 0.53476632 0
0.12255052 0.62685049 0.5271036 0
0.11988907 0.62682408 0.52491063 0
0.07405059 0.62981087 0.48798057 0
0.071766168 0.62978774 0.48546708 0
0.069216743 0.62958431 0.48391631 0
0.067001909 0.62984687 0.48172542 0
0.062672488 0.6292786 0.47837308 0
0.054406725 0.62986845 0.47251281 0
0.039296225 0.63042086 0.45942008 0
0.040254969 0.63090241 0.46018159 0
0.03365225 0.63067597 0.45527506 0
0.025242604 0.63131839 0.44796732 0
0.0080961697 0.63374764 0.43409196 0
-0.051773049 0.63603973 0.38539463 0
-0.07185638 0.63701952 0.36885464 0
-0.074193567 0.63696831 0.3667486 0
-0.10171121 0.63848746 0.34380165 0
-0.10703178 0.63870525 0.33991632 0
-0.10815686 0.63963908 0.33889648 0
-0.12120284 0.63994491 0.32836497 0
-0.13615575 0.64003563 0.3160229 0
-0.15380961 0.6404081 0.30127466 0
