# .PCD v0.7 - Point Cloud Data file format
VERSION 0.7
FIELDS x y z intensity
SIZE 4 4 4 4
TYPE F F F F
COUNT 1 1 1 1
WIDTH 1332
HEIGHT 1
VIEWPOINT 0 0 0 1 0 0 0
POINTS 1332
DATA ascii
0.21658567 0.71604538 0.11251958 0
0.22201431 0.71569192 0.1172545 0
0.24282655 0.71968067 0.13423914 0
0.24976337 0.72057563 0.13948305 0
0.25116065 0.7215997 0.14066546 0
0.25850442 0.72257692 0.14647733 0
0.30365187 0.7314344 0.18358937 0
0.30973265 0.73328406 0.18877277 0
0.34153402 0.73889279 0.2147235 0
-0.020997085 0.67288321 -0.0816366 0
-0.016843639 0.67344469 -0.078388922 0
-0.01296008 0.67428827 -0.075002044 0
-0.0074605346 0.67572486 -0.070937492 0
0.00095740706 0.67753059 -0.063599952 0
0.03795696 0.68495673 -0.033250116 0
0.08575654 0.69297534 0.0056230561 0
0.088897452 0.69299942 0.0081896167 0
0.1346401 0.70203185 0.045876082 0
0.14583047 0.70515233 0.055091809 0
0.14894108 0.70496291 0.056849435 0
0.16251171 0.70834023 0.06838543 0
0.19444466 0.71314663 0.094482809 0
0.23604238 0.72102368 0.12843184 0
0.24183917 0.722902 0.13276252 0
0.24709594 0.72278976 0.13744843 0
0.2742261 0.72869426 0.15939598 0
0.27808541 0.72964203 0.16222438 0
0.28004906 0.73028642 0.16362822 0
0.30379209 0.7335543 0.18369888 0
0.33329701 0.7397005 0.20618412 0
-0.00020811707 0.67842501 -0.064796209 0
0.013261989 0.68142891 -0.053728815 0
0.017004751 0.682253 -0.050588194 0
0.10101487 0.69754964 0.018141596 0
0.10964675 0.69948059 0.025345676 0
0.11744331 0.70032912 0.031489898 0
0.12399609 0.70252407 0.036763933 0
0.17061342 0.71172255 0.075056821 0
0.18042192 0.71368921 0.082596093 0
0.23318839 0.72332662 0.12613826 0
0.24448156 0.72485799 0.13496421 0
0.24582142 0.72588229 0.13631615 0
0.28105363 0.73134571 0.16445383 0
0.2901262 0.73274392 0.17280705 0
0.30860415 0.73641115 0.18724599 0
-0.012444988 0.67857563 -0.075230949 0
0.009191744 0.68245614 -0.056937076 0
0.080209091 0.69506943 0.0013614581 0
0.091257691 0.69834065 0.010055365 0
0.10864624 0.70033169 0.024390949 0
0.116106 0.70350099 0.030399969 0
0.12063015 0.7043432 0.033714939 0
0.13527912 0.7058351 0.046017658 0
0.14065784 0.7079314 0.050465938 0
0.15453258 0.71044523 0.06188678 0
0.18378766 0.7157079 0.085373603 0
0.20057967 0.71850097 0.099255674 0
0.206536 0.72061062 0.10423554 0
0.21968633 0.72180903 0.11501043 0
0.22664216 0.72283655 0.12046037 0
0.2670638 0.7302103 0.15396392 0
0.27801883 0.73388189 0.16210037 0
0.29174694 0.73590124 0.1734571 0
0.29297847 0.73706305 0.17466208 0
0.29625612 0.73728657 0.1768481 0
0.3109163 0.73849559 0.18963081 0
-0.021138456 0.67853779 -0.08197283 0
0.0097628534 0.68550301 -0.056681771 0
0.013464533 0.68536675 -0.053975198 0
0.045817792 0.69143349 -0.027186545 0
0.059108928 0.69287521 -0.016517634 0
0.074887365 0.69736993 -0.0029829196 0
0.078077868 0.6972298 -0.0012091114 0
0.083269969 0.69900054 0.0034155534 0
0.10218638 0.701208 0.018212507 0
0.11241412 0.70476502 0.027274819 0
0.12195466 0.70544142 0.034928221 0
0.13115191 0.70716006 0.042733323 0
0.13951841 0.70880884 0.048888132 0
0.17399622 0.71525443 0.076962061 0
0.17527479 0.71607405 0.078188784 0
0.24445114 0.72906381 0.13525015 0
0.25586626 0.73096037 0.14430477 0
0.29181966 0.73815662 0.17349532 0
0.30736539 0.7408886 0.18501166 0
-0.019595735 0.68120581 -0.080682382 0
0.019914493 0.68800861 -0.048323635 0
0.088817686 0.70243925 0.007515403 0
0.12606274 0.70932573 0.037861858 0
0.14263713 0.71245027 0.051187515 0
0.15620869 0.71396786 0.062823154 0
0.21364558 0.72487259 0.10981487 0
0.22247073 0.72599578 0.11712391 0
0.22808746 0.72773963 0.12180104 0
0.24316081 0.73023808 0.13415603 0
0.25850341 0.73296154 0.14654924 0
0.27502611 0.7358709 0.159794 0
-0.02983759 0.68141645 -0.088862441 0
-0.018124994 0.68407416 -0.079647787 0
-0.015404131 0.68408859 -0.077524893 0
-0.014236134 0.68341517 -0.076337852 0
0.036361732 0.69266248 -0.035325266 0
0.080597878 0.70102459 0.0012076222 0
0.081892341 0.70200616 0.002399283 0
0.12192246 0.70943791 0.034680448 0
0.15490098 0.71703696 0.061521512 0
0.15761299 0.71686751 0.06369973 0
0.21253052 0.72664547 0.10890246 0
0.22408095 0.7291317 0.11825021 0
0.29217708 0.74230283 0.17343719 0
0.30564317 0.74452227 0.1841059 0
-0.010027457 0.68762261 -0.073124401 0
0.0034787655 0.68944162 -0.062448528 0
0.010069616 0.68999612 -0.056805018 0
0.029594913 0.69409156 -0.04082156 0
0.038924955 0.6965332 -0.033026848 0
0.047184981 0.69816434 -0.026240161 0
0.075325131 0.7030738 -0.0033125556 0
0.074116006 0.70205814 -0.004543615 0
0.12208845 0.71144456 0.034695815 0
0.13854486 0.71577519 0.048124757 0
0.139605 0.7142874 0.049157858 0
0.14386794 0.71565235 0.052376438 0
0.15600576 0.71808314 0.062911347 0
0.16846423 0.72001338 0.072949059 0
0.17546862 0.72235483 0.078740455 0
0.19988406 0.72676378 0.098390929 0
0.2030004 0.72648418 0.10076251 0
0.20152864 0.72731775 0.099646114 0
0.20982963 0.72909838 0.10640161 0
0.21995598 0.73029256 0.1149599 0
0.22724923 0.73282623 0.1201364 0
0.23650715 0.7333262 0.12834264 0
0.2615777 0.73947012 0.14859362 0
-0.021742143 0.68727839 -0.082780458 0
-0.019161161 0.68738329 -0.080904819 0
-0.016262345 0.68699908 -0.078619398 0
0.010160312 0.6919291 -0.056896243 0
0.011468098 0.69286501 -0.055853408 0
0.018989585 0.69322306 -0.049471784 0
0.021391325 0.69467634 -0.047485221 0
0.024291247 0.69422817 -0.045356307 0
0.032078169 0.69597298 -0.038688082 0
0.036541954 0.69655907 -0.035389073 0
0.04620371 0.69921952 -0.027713971 0
0.048531786 0.69917738 -0.025107039 0
0.060691245 0.70193863 -0.015379036 0
0.087388381 0.70753425 0.0066249506 0
0.10976587 0.71066815 0.024775375 0
0.11565915 0.71328574 0.02954261 0
0.14668825 0.71763963 0.054725695 0
0.14828391 0.71847928 0.055879325 0
0.15496078 0.72111517 0.061520409 0
0.19614393 0.72819436 0.094824523 0
0.25428468 0.73966777 0.14065984 0
0.025887989 0.69715136 -0.044485256 0
0.047466345 0.70234054 -0.026265407 0
0.05530414 0.70216596 -0.019737212 0
0.11985737 0.71525991 0.032288108 0
0.13117687 0.71709758 0.042087782 0
0.14099205 0.72011799 0.050356325 0
0.15365599 0.72209013 0.060394574 0
0.15493201 0.72308093 0.061497554 0
0.15907501 0.72383815 0.064891599 0
0.17966525 0.72790027 0.082106911 0
0.18131483 0.72724003 0.083022349 0
0.19469517 0.72942096 0.093655266 0
0.19328922 0.73049426 0.0926679 0
0.19330055 0.73039907 0.092781805 0
0.19620198 0.73027086 0.094728693 0
0.2031208 0.73099083 0.10048819 0
0.20153302 0.73012018 0.099498503 0
-0.024525728 0.6898368 -0.085032962 0
-0.020079874 0.69042838 -0.08210241 0
-0.017507672 0.69012576 -0.079785638 0
-0.0094631426 0.69167757 -0.07320907 0
0.066560373 0.70663911 -0.010765573 0
0.075075611 0.7078616 -0.0041783242 0
0.084083468 0.7104997 0.0029757568 0
0.12872715 0.71935636 0.039973259 0
0.14147808 0.72200322 0.050061535 0
0.16601877 0.72631472 0.070828371 0
0.19195256 0.73150378 0.091726929 0
-0.017229345 0.69398022 -0.079770125 0
-0.0049816668 0.69485211 -0.06977693 0
-0.0018201023 0.69564545 -0.066565022 0
0.039613128 0.70468038 -0.032936536 0
0.058461674 0.70806587 -0.017836848 0
0.075295836 0.71187305 -0.0041838302 0
0.080765083 0.712165 0.00084278965 0
0.086891145 0.71215874 0.0054795989 0
0.092385709 0.713974 0.0098236818 0
0.12324338 0.72001421 0.035249617 0
0.13448134 0.72135532 0.044315267 0
0.1397415 0.72325009 0.048949465 0
0.1486607 0.72476345 0.055408612 0
-0.015942074 0.69486135 -0.078634381 0
0.0054502264 0.70007694 -0.061415602 0
0.044971861 0.70771629 -0.028849097 0
0.050157428 0.70716882 -0.024829971 0
0.070774764 0.71132827 -0.0074591725 0
0.089860544 0.71627808 0.0074499198 0
0.10026409 0.71775478 0.01674105 0
0.10913435 0.71897835 0.023993576 0
0.12507664 0.72267687 0.036307719 0
0.12747039 0.72240049 0.038742121 0
0.14150248 0.72607332 0.050113313 0
0.15778494 0.7287268 0.063608587 0
0.17078005 0.73242676 0.074930586 0
0.17905712 0.7333442 0.079313561 0
-0.02655001 0.69570428 -0.087251402 0
-0.010795962 0.69736832 -0.074235521 0
0.004123047 0.70125175 -0.062344391 0
0.01133766 0.70320594 -0.056568213 0
0.01675041 0.70286071 -0.052403137 0
0.02482824 0.70432383 -0.045359783 0
0.060060129 0.71095592 -0.016667297 0
0.072466493 0.71401304 -0.0062238923 0
0.071205795 0.71506256 -0.0073325946 0
0.084102184 0.71616066 0.0026708194 0
0.092626959 0.71831805 0.0095099192 0
0.10244742 0.72063601 0.017243886 0
0.11178768 0.72163159 0.025707193 0
0.14327984 0.72895563 0.05107823 0
-0.027904477 0.6967352 -0.088248365 0
-0.02649096 0.69758898 -0.087153822 0
-0.018227953 0.6991989 -0.081228174 0
0.029077239 0.70882261 -0.04186891 0
0.035809331 0.70887655 -0.036645837 0
0.034421854 0.70808756 -0.037680589 0
0.046417959 0.71062005 -0.02769479 0
0.051947638 0.71203399 -0.023306256 0
0.059070192 0.71404243 -0.017788051 0
0.066961259 0.7147252 -0.010855814 0
0.081381947 0.718413 0.0006153346 0
0.1286436 0.72727841 0.039357703 0
0.13737294 0.72985023 0.046949141 0
0.14005919 0.7293995 0.049158052 0
0.17928156 0.73599988 0.079503559 0
0.20135808 0.74063253 0.093222179 0
-0.027849402 0.69861233 -0.088227101 0
0.052067026 0.71400791 -0.023300683 0
0.068437412 0.71768302 -0.0097574573 0
0.094979078 0.72242242 0.012092633 0
0.10729413 0.72487432 0.021248089 0
0.14876957 0.73289818 0.055286359 0
-0.027559809 0.70052272 -0.0880538 0
0.02225256 0.71073997 -0.047705766 0
0.052270234 0.71598601 -0.023309657 0
0.075775042 0.72051954 -0.0034289486 0
0.077428669 0.72131705 -0.0024368777 0
0.20096093 0.74198496 0.077271856 0
0.20410711 0.74176008 0.079035901 0
0.0030065551 0.70899391 -0.063652717 0
0.0081242844 0.70988578 -0.059944812 0
0.02270934 0.71292782 -0.047514673 0
0.025686696 0.71225286 -0.045528416 0
0.049916878 0.71853948 -0.025698075 0
0.11451355 0.73025715 0.027677666 0
-0.0098755956 0.70856887 -0.074174576 0
0.0065487698 0.71225566 -0.060969923 0
0.0083094612 0.71188009 -0.060021956 0
0.034430087 0.7175498 -0.038323507 0
0.035528459 0.71653956 -0.037118334 0
0.069009691 0.72361392 -0.009738585 0
-0.020958178 0.7071082 -0.083369158 0
-0.011012912 0.70957112 -0.075296961 0
-0.0078285486 0.70971531 -0.072478309 0
0.0083601698 0.71389526 -0.059992943 0
0.027390257 0.71706158 -0.043871887 0
0.034359708 0.71955204 -0.038321838 0
0.035562016 0.71860236 -0.037110545 0
0.055514418 0.72198153 -0.021016324 0
0.073559836 0.72744972 -0.0061126254 0
0.12863675 0.73453748 0.022171557 0
-0.026007459 0.70968175 -0.087549977 0
-0.023520891 0.7090044 -0.085478909 0
-0.017636299 0.71043551 -0.080897994 0
-0.010318682 0.71187347 -0.075080574 0
-0.0045806468 0.71349329 -0.070365034 0
-0.0063129961 0.71252483 -0.071667351 0
-0.00044518709 0.71438521 -0.067187168 0
0.031302512 0.71974993 -0.040784732 0
0.033301868 0.72074056 -0.039579198 0
0.03965912 0.72131747 -0.034659222 0
0.042040206 0.72323185 -0.032104842 0
-0.025691003 0.71369678 -0.087696545 0
-0.016332656 0.71556568 -0.080050997 0
-0.0085866153 0.71691716 -0.073978595 0
0.0079035833 0.71916306 -0.060067642 0
0.034726366 0.72379988 -0.038632493 0
0.045169733 0.72568059 -0.031219067 0
0.065807253 0.72971272 -0.022564171 0
-0.020012904 0.71685928 -0.083271734 0
-0.021447666 0.71606433 -0.084199041 0
-0.016204588 0.7175253 -0.080104016 0
0.0054093599 0.72154337 -0.061356697 0
0.013611145 0.72297353 -0.055558782 0
0.045543276 0.7276324 -0.041101541 0
-0.014882095 0.71849453 -0.079057403 0
-0.013544179 0.71947843 -0.077932738 0
-0.0093654729 0.71997362 -0.075274594 0
0.019662455 0.72550607 -0.053583875 0
0.036607094 0.72748715 -0.041347936 0
0.044137806 0.72926718 -0.041050676 0
-0.02485653 0.71966225 -0.087696329 0
0.026045948 0.72932398 -0.049115367 0
-0.080343515 0.72466683 -0.042134624 0
-0.023475919 0.72053099 -0.08636301 0
-0.00089886039 0.72589183 -0.069036119 0
-0.080767423 0.72609216 -0.041283801 0
-0.0023610257 0.72699136 -0.075057752 0
0.0084809065 0.72966534 -0.069527589 0
-0.018983532 0.72793967 -0.084798604 0
0.05789765 -0.35626435 0.24003261 0
0.059472986 -0.35221213 0.24045546 0
0.061808795 -0.35316944 0.24304113 0
0.03988865 -0.34934491 0.22751334 0
0.062005162 -0.34721094 0.24109696 0
0.060567573 -0.34001201 0.23707619 0
0.066525474 -0.32677037 0.23614395 0
0.083248317 -0.32561338 0.24760783 0
0.094216287 -0.3224287 0.26061553 0
0.080483228 -0.31845719 0.24439202 0
0.095913649 -0.31444913 0.25991759 0
0.092963755 -0.31040066 0.25446674 0
0.095965773 -0.30392632 0.25907513 0
0.096678302 -0.30039638 0.25996885 0
0.090286061 -0.29124409 0.25609022 0
0.026453726 -0.28836024 0.22810186 0
0.080028102 -0.28573328 0.25031823 0
0.076738745 -0.28227067 0.25056237 0
0.078395292 -0.28392202 0.25064924 0
0.063986525 -0.27923983 0.24714191 0
0.073369473 -0.27758262 0.25380772 0
0.064284891 -0.27235579 0.25447163 0
0.1029043 -0.27171287 0.27371329 0
0.046423137 -0.26551464 0.24563771 0
0.051136672 -0.26612234 0.25052547 0
0.052377157 -0.26397032 0.25024208 0
0.058980457 -0.25704384 0.25524813 0
0.067522764 -0.24722961 0.25798994 0
0.1018111 -0.24164625 0.28078985 0
0.098734543 -0.23904523 0.27932543 0
0.10032272 -0.23950423 0.28089941 0
0.085417897 -0.23454331 0.2594367 0
0.098057076 -0.23692954 0.27915406 0
0.091459483 -0.22986521 0.25317106 0
0.1252532 -0.1890942 0.20214641 0
0.13877654 -0.19034024 0.20926915 0
0.11849596 -0.18603718 0.20096742 0
0.1409566 -0.17688811 0.20354339 0
0.14659768 -0.17560154 0.20810416 0
0.14948656 -0.17571363 0.21091771 0
0.13881488 -0.17452264 0.20148221 0
0.15478745 -0.1648013 0.21082185 0
0.14578697 -0.16089737 0.20319481 0
0.1450707 -0.15715423 0.20266661 0
0.13752927 -0.14850068 0.2001753 0
0.15753466 -0.14635465 0.20997113 0
0.15777031 -0.14057878 0.2091368 0
0.15784647 -0.13835864 0.20894021 0
0.15918106 -0.13617298 0.20985387 0
0.16183017 -0.13642339 0.21202436 0
0.16816939 -0.12835088 0.2172835 0
0.17081758 -0.12846141 0.22024919 0
0.15516244 -0.12479655 0.20718862 0
0.16731842 -0.12074514 0.21579021 0
0.17201544 -0.11978131 0.21995726 0
0.17346193 -0.11516207 0.22245076 0
0.17509463 -0.11425997 0.22359389 0
0.17651995 -0.11078496 0.22481968 0
0.17729223 -0.10574865 0.22479334 0
0.15053119 -0.099292919 0.20910847 0
0.15549992 -0.099225111 0.21136662 0
0.17533009 -0.099598542 0.22234984 0
0.17403845 -0.098439366 0.22108582 0
0.17544866 -0.09744712 0.22243233 0
0.10745385 -0.098193161 0.23546858 0
0.16457516 -0.096892074 0.21495071 0
0.1771152 -0.09641514 0.22331031 0
0.18344523 -0.095325373 0.23104846 0
0.16952479 -0.093899526 0.21731269 0
0.10058782 -0.095803477 0.23189755 0
0.10158077 -0.094331138 0.23306769 0
0.16810451 -0.087580949 0.2164685 0
0.11079593 -0.087265842 0.24051209 0
0.095008433 -0.085426666 0.2320774 0
0.096884444 -0.08551687 0.23328361 0
0.16979907 -0.081884846 0.21704997 0
0.18572921 -0.080331951 0.22933638 0
0.075820833 -0.081171185 0.2237864 0
0.1757194 -0.077381387 0.22040509 0
0.17722683 -0.078562692 0.22115332 0
0.1810742 -0.078476667 0.22455028 0
0.18360594 -0.074676663 0.22632536 0
0.16701196 -0.070988059 0.21570303 0
0.18621291 -0.070024192 0.22766343 0
0.19256383 -0.069513187 0.23491502 0
0.1669267 -0.067637667 0.2158978 0
0.082088023 -0.070063047 0.23430248 0
0.085114211 -0.069177866 0.2376356 0
0.11162956 -0.069824338 0.24323063 0
0.19038835 -0.06681136 0.23216996 0
0.1917569 -0.066065401 0.23373438 0
0.081757993 -0.067643717 0.23669134 0
0.17660534 -0.063295692 0.220328 0
0.18422996 -0.062839441 0.22551668 0
0.19103795 -0.064613886 0.23152846 0
0.1725596 -0.060911473 0.21786839 0
0.17341636 -0.059265867 0.21873961 0
0.17575763 -0.060262002 0.22020842 0
0.18455866 -0.058599997 0.22508016 0
0.19168538 -0.058067515 0.23177078 0
0.18865463 -0.050157357 0.22764753 0
0.19925421 -0.048453294 0.23760355 0
0.10176612 -0.05029954 0.24684589 0
0.12313756 -0.049778279 0.25594091 0
0.18103006 -0.045270886 0.2223434 0
0.17484586 -0.04318827 0.21972537 0
0.177687 -0.042039745 0.22174437 0
0.18938446 -0.037324931 0.22682165 0
0.19742441 -0.037651941 0.23306562 0
0.19757208 -0.032675613 0.23379217 0
0.19100806 -0.032325875 0.22755612 0
0.20264161 -0.030041002 0.23794948 0
0.1913313 -0.027414247 0.22823854 0
0.20486635 -0.011882428 0.23195879 0
0.13864408 -0.011611328 0.26628241 0
0.14546028 -0.01009573 0.27210453 0
0.14739466 -0.0096071735 0.2719855 0
0.14318134 -0.0087405667 0.26536459 0
0.21178749 -0.0010627434 0.23353246 0
0.21044239 0.0064821541 0.2292257 0
0.14594416 0.0074112713 0.25958979 0
0.19235784 0.015199512 0.21624973 0
0.21087733 0.019751422 0.22604752 0
0.20439413 0.030112952 0.21712084 0
0.14696822 0.028190896 0.25284219 0
0.21188381 0.032325163 0.22408979 0
0.2075125 0.039190203 0.21849872 0
0.085652396 0.037375055 0.17076811 0
-0.031191591 0.037962243 0.069761477 0
0.12714812 0.040594079 0.23323999 0
-0.023909673 0.039751492 0.074078195 0
0.019373901 0.039140791 0.12052687 0
0.2076917 0.048903614 0.21764022 0
0.021047182 0.046082251 0.11219621 0
-0.013361968 0.04758922 0.076862022 0
-0.0078032538 0.04654178 0.083243147 0
-0.0022467673 0.046926029 0.087753005 0
0.014746681 0.04746592 0.10470431 0
0.043326199 0.048980147 0.13325706 0
0.14174455 0.051605865 0.23254102 0
-0.033248164 0.048434407 0.060341217 0
-0.021295447 0.048879303 0.069314308 0
-0.0045132302 0.048498608 0.084497921 0
-0.0030215718 0.050365999 0.084472544 0
0.020638585 0.051602229 0.10651787 0
0.050713852 0.052799582 0.1370856 0
0.20704982 0.058190905 0.21576351 0
-0.036237344 0.052664511 0.056459162 0
-0.029084254 0.052991897 0.0610351 0
0.01847969 0.05316326 0.10277578 0
0.091935903 0.054924093 0.15874334 0
0.14150758 0.056095175 0.22937776 0
0.020370051 0.056433216 0.10252271 0
0.088204831 0.05783961 0.15203337 0
0.11242723 0.057984889 0.17831677 0
0.13689961 0.057873227 0.22537577 0
-0.032896366 0.055636562 0.057260703 0
-0.027521797 0.057023972 0.060286295 0
-0.010875937 0.057299785 0.072651617 0
0.048384763 0.058793612 0.12923099 0
0.076044932 0.059888966 0.13980737 0
0.044647574 0.060072877 0.12433143 0
0.056794293 0.059733473 0.13702086 0
-0.022422731 0.060854748 0.061108347 0
0.031889386 0.06286446 0.11027591 0
0.044726051 0.063288376 0.12220246 0
0.052781343 0.062780127 0.13042456 0
0.054396853 0.063105814 0.13212346 0
0.089510828 0.062950224 0.14842369 0
0.14429933 0.065138049 0.22521138 0
0.20622241 0.066848896 0.21374138 0
-0.013236661 0.063326135 0.068007767 0
0.023453929 0.064485572 0.10091272 0
0.03267774 0.063822486 0.11037599 0
0.095663607 0.06594041 0.15379736 0
0.20439759 0.069062248 0.21062931 0
-0.013723932 0.064896017 0.066584006 0
-0.0056000426 0.063958339 0.073841818 0
0.049069211 0.066289373 0.12509876 0
0.053634115 0.067381583 0.12840812 0
0.079250112 0.068093583 0.13779275 0
0.12011762 0.068837196 0.17712829 0
-0.00540388 0.067344517 0.072588809 0
0.09281534 0.069154263 0.14843985 0
0.099990234 0.0706328 0.15455508 0
0.11934188 0.070475161 0.17626175 0
-0.0040424503 0.067969203 0.073817633 0
0.029442891 0.070271343 0.10419556 0
0.089054376 0.071424767 0.14268625 0
0.09258455 0.070888817 0.1467309 0
0.11138383 0.072556689 0.16329069 0
0.034237206 0.071107417 0.1089956 0
0.091746658 0.073982239 0.14382368 0
0.093763039 0.072811633 0.14698955 0
0.13828179 0.075301245 0.19750479 0
0.0066232458 0.07308647 0.081115134 0
0.018136583 0.07420902 0.091410406 0
0.087790251 0.074719161 0.1395285 0
0.089614525 0.075120553 0.14081004 0
0.20265391 0.079217657 0.20926686 0
0.018976316 0.076094434 0.092218876 0
0.086651281 0.077676058 0.13776983 0
0.12072204 0.078226492 0.17520303 0
0.12250027 0.078270406 0.1759502 0
0.15114056 0.078856289 0.21793804 0
0.20166123 0.08153823 0.20949104 0
0.027422488 0.077981383 0.1001241 0
0.094917119 0.079680905 0.14377119 0
0.13834614 0.08084102 0.19445232 0
0.14405642 0.081893787 0.20080806 0
0.15169093 0.081906125 0.21410087 0
0.029002599 0.07865876 0.10144569 0
0.061244778 0.080963418 0.13153151 0
0.032552332 0.081443489 0.10522935 0
0.10872813 0.084795907 0.15642884 0
-0.0013175756 0.083083183 0.074362658 0
0.10144228 0.085870162 0.1486125 0
0.10553609 0.085046783 0.15330106 0
0.12412657 0.085874557 0.17625432 0
-0.0012639649 0.085212946 0.075506002 0
0.00017486513 0.084590048 0.076456957 0
0.038207509 0.085611895 0.110648 0
0.1148133 0.088504404 0.16053352 0
0.031411819 0.086730644 0.1033521 0
0.054891489 0.087906793 0.12568428 0
0.11101958 0.090510488 0.15679798 0
0.14856288 0.090388954 0.20780875 0
0.1156899 0.09223412 0.16050845 0
0.1973809 0.09577328 0.20382696 0
0.19579959 0.096861988 0.20181592 0
0.19874951 0.096873701 0.20539419 0
-0.0038246959 0.09120892 0.078404926 0
0.026504323 0.093358487 0.09990555 0
0.098618954 0.095756352 0.14147885 0
0.14234263 0.097098097 0.20167182 0
0.006279707 0.095088542 0.086821772 0
0.041308559 0.094953328 0.11432149 0
0.097174257 0.097941771 0.14032076 0
0.099285811 0.097576782 0.1416126 0
0.006453231 0.096929267 0.088237591 0
0.032341376 0.10375772 0.10900956 0
0.033047423 0.10535288 0.11048146 0
0.042886809 0.1044016 0.11800564 0
0.11399181 0.10749821 0.15544137 0
0.12760945 0.10870562 0.17958988 0
0.18090422 0.11124647 0.19033059 0
-0.0030198731 0.1054873 0.079212435 0
0.19380817 0.11201429 0.19947623 0
0.042839669 0.10926099 0.11941867 0
0.10550407 0.1118798 0.14536768 0
0.12697771 0.11303751 0.17960228 0
0.19372892 0.114161 0.19934247 0
-0.00030052662 0.10987951 0.080579951 0
0.098773524 0.11289249 0.13869892 0
0.10914001 0.1142505 0.14781912 0
0.11652075 0.11406282 0.15641713 0
0.19572291 0.11852583 0.2037469 0
0.0028937384 0.11377844 0.084456556 0
0.11270274 0.11817974 0.15192452 0
0.11403695 0.11720692 0.153326 0
0.003209196 0.11621231 0.083746292 0
0.0067437068 0.11505707 0.087948605 0
0.044129439 0.1179443 0.12401123 0
-0.047797844 0.11481376 0.055306856 0
0.0069097877 0.1172213 0.088072695 0
0.0032250211 0.11833908 0.083693027 0
0.098367006 0.12301989 0.14636447 0
0.0015020892 0.12175083 0.082179748 0
0.043534979 0.12322833 0.12717649 0
0.12786204 0.12699975 0.1842303 0
0.036694005 0.12386903 0.12552033 0
0.043985732 0.12407516 0.12859534 0
-0.027357321 0.12331508 0.065623559 0
-0.0085539855 0.12521465 0.074965723 0
0.040411338 0.12681894 0.1290105 0
0.061633363 0.12653416 0.14052597 0
0.12571827 0.13036314 0.1826099 0
0.0082265735 0.12693819 0.089374334 0
0.0064027533 0.12984933 0.088132389 0
0.010547064 0.12945002 0.092167512 0
0.1835549 0.13620739 0.18765175 0
0.047487885 0.13313869 0.13714634 0
0.18493198 0.13858974 0.18960187 0
0.046135157 0.13476582 0.13776402 0
0.095706686 0.13728149 0.14346421 0
0.18496753 0.14077687 0.18951786 0
0.010973647 0.13579249 0.093866125 0
0.036253631 0.13558146 0.13498133 0
0.0050516576 0.13662684 0.088313453 0
0.0057697892 0.13838552 0.089233905 0
-0.0013826974 0.14120305 0.085583888 0
0.011086173 0.14151837 0.096436299 0
0.049177803 0.14305323 0.14565389 0
0.0096965507 0.14215659 0.094942093 0
0.012079194 0.14286406 0.097743839 0
0.03493268 0.14468186 0.14444242 0
0.051599585 0.14394546 0.14694913 0
0.10779637 0.14639354 0.16265029 0
0.093130827 0.14915168 0.15181687 0
0.17702793 0.15120704 0.18179959 0
0.029597148 0.1481491 0.13486189 0
0.16353394 0.15328507 0.17377834 0
0.0088822693 0.14790168 0.096479207 0
0.065671563 0.15049343 0.15964554 0
0.072690204 0.15430759 0.16565247 0
-0.029424798 0.1513043 0.082874551 0
0.054923907 0.15437533 0.15813729 0
0.057062574 0.15456063 0.15962549 0
0.008726418 0.15432885 0.099345051 0
0.13055782 0.15981431 0.1654159 0
0.015294366 0.15573432 0.10648101 0
0.14803539 0.16210753 0.15482774 0
0.010526054 0.15888512 0.10331485 0
0.17285453 0.16512851 0.16658601 0
0.053161472 0.1623079 0.16797259 0
0.13525631 0.16617817 0.15141101 0
-0.027306806 0.16027011 0.090187825 0
0.019149825 0.16321763 0.11415977 0
0.069639355 0.1646242 0.17547213 0
0.21566603 0.17193483 0.20579851 0
0.268702 0.17447367 0.24877137 0
0.25712684 0.17474449 0.2386305 0
0.20082286 0.17507637 0.19132705 0
0.21811354 0.17621019 0.20570324 0
0.26213247 0.17756401 0.24184318 0
0.27310976 0.1778947 0.25082043 0
0.013295621 0.16835853 0.1118257 0
0.18600114 0.17566839 0.17286912 0
0.20303047 0.17686202 0.19057445 0
0.21051237 0.17795573 0.19647838 0
0.24533394 0.17876773 0.22654992 0
-0.023729786 0.168145 0.098588809 0
0.23637226 0.18126233 0.21734428 0
0.26449749 0.18153806 0.24188854 0
0.278258 0.18282239 0.25450364 0
0.29281244 0.18274343 0.26787442 0
0.015128963 0.1732875 0.11598799 0
0.020145446 0.17256211 0.12023982 0
0.24727798 0.1831972 0.22631411 0
0.053031266 0.17673057 0.20178831 0
0.055548333 0.17799832 0.20360743 0
0.20509654 0.183639 0.18750268 0
0.21416935 0.18425271 0.19611086 0
0.024236105 0.17672071 0.12699732 0
0.022780955 0.17735992 0.12530397 0
0.049401209 0.17963308 0.20166892 0
0.1877 0.18406896 0.17020443 0
0.20082271 0.1852942 0.18264149 0
0.24926454 0.18762523 0.22623795 0
0.27942589 0.18818562 0.25257567 0
0.28396875 0.18977104 0.2566922 0
0.2895987 0.19005647 0.26225138 0
0.22820634 0.18824425 0.20628142 0
0.24464223 0.18966785 0.22013229 0
0.27519649 0.19050415 0.24847098 0
0.28176838 0.19059926 0.25393611 0
0.014636621 0.18037958 0.12041412 0
0.052554227 0.18243262 0.20814714 0
0.19222867 0.18824461 0.17173564 0
0.20919469 0.18839987 0.18890004 0
0.23653558 0.19134964 0.21177831 0
0.23562807 0.18956302 0.21183944 0
0.24220544 0.19111164 0.21751444 0
0.24559838 0.19182409 0.22005239 0
0.26447976 0.1922064 0.23690155 0
0.26296994 0.19141699 0.23558663 0
0.27841109 0.19312356 0.24958646 0
0.021226279 0.18288691 0.12729706 0
0.22660798 0.19111411 0.20335627 0
0.25255156 0.19389413 0.22572982 0
0.27908245 0.19525267 0.24948923 0
0.17075424 0.19058484 0.15403512 0
0.22010389 0.19371726 0.19592752 0
0.23927554 0.19391321 0.21319531 0
0.23842773 0.19545506 0.21182999 0
0.28044754 0.1959414 0.25101903 0
0.29833549 0.19765882 0.26622543 0
0.21502891 0.19464524 0.18979883 0
0.23942158 0.1973889 0.21192414 0
0.2651338 0.19793449 0.2354698 0
0.28196183 0.1997024 0.2500931 0
0.17470428 0.19543742 0.15556419 0
0.1976828 0.19706972 0.17129853 0
0.20138341 0.19622709 0.17608064 0
0.21025857 0.19710781 0.18367782 0
0.21950573 0.19736518 0.1926617 0
0.26195872 0.20021524 0.23109607 0
0.2767033 0.19962154 0.24490541 0
0.14083119 0.19601981 0.14027946 0
0.20996243 0.19896774 0.18220367 0
0.22046289 0.19936968 0.19278875 0
0.23881733 0.20123012 0.20985326 0
0.29184997 0.20363821 0.25743526 0
0.022644833 0.192323 0.13494293 0
0.1836288 0.19833259 0.15950607 0
0.2111541 0.20069565 0.1821734 0
0.25877583 0.20268886 0.22704823 0
0.28600058 0.20517461 0.25166851 0
0.0020041391 0.19270952 0.12875801 0
0.0443689 0.19694762 0.16998765 0
0.19361037 0.2013431 0.16644314 0
0.22120494 0.20276044 0.19115391 0
0.22481972 0.2035598 0.1941414 0
0.28365657 0.20612545 0.24868995 0
-0.0045771711 0.19532396 0.13083741 0
0.028983928 0.19599383 0.14327087 0
0.13046819 0.20011602 0.1418467 0
0.21842819 0.20578127 0.18651605 0
0.21837452 0.20582782 0.1864022 0
0.22005969 0.20621555 0.1880251 0
0.22007242 0.20623343 0.18813388 0
0.22658595 0.20532303 0.19399786 0
0.24754104 0.20701243 0.21455187 0
0.25270301 0.20669086 0.22005995 0
0.29726779 0.20928647 0.25960952 0
0.20168984 0.2057928 0.17025968 0
0.21790165 0.20731534 0.18493994 0
0.21941572 0.20780523 0.1864897 0
0.24961755 0.20982338 0.21428505 0
0.28527397 0.21193297 0.24740529 0
0.018658973 0.19982128 0.13925211 0
0.028587453 0.20092119 0.1457646 0
0.047942452 0.20310424 0.18130839 0
0.061583102 0.20436434 0.21564396 0
0.17876126 0.20716251 0.15305701 0
0.23249349 0.20915087 0.19810933 0
0.23919117 0.20967107 0.20410573 0
0.24389738 0.21071596 0.2084242 0
0.24722698 0.21114711 0.21171853 0
0.28306419 0.21328129 0.24451503 0
0.062253058 0.20617609 0.21386567 0
0.21876329 0.21107142 0.18371578 0
0.22201881 0.2116666 0.18669969 0
0.23841292 0.21281607 0.20127669 0
0.018087506 0.20498408 0.14222394 0
0.02902481 0.20548759 0.14897634 0
0.18817309 0.21053453 0.15698963 0
0.22484618 0.21393074 0.18768379 0
0.26074767 0.21556883 0.22243796 0
0.28403696 0.21692176 0.2427766 0
0.051504456 0.20860659 0.18400484 0
0.057664439 0.20871098 0.20608753 0
0.13260086 0.21108605 0.14537445 0
0.2339066 0.21519543 0.19615094 0
0.27404329 0.21810888 0.23344617 0
0.021879002 0.20805939 0.1467097 0
0.13120358 0.21273233 0.1458244 0
0.25803986 0.21992211 0.21640006 0
0.30618724 0.22289793 0.25916803 0
0.05966457 0.21330611 0.2077803 0
0.13298798 0.21490745 0.14578414 0
0.17902736 0.21720959 0.14819141 0
0.22299284 0.21858265 0.18352361 0
0.25691083 0.22080888 0.21420425 0
0.27579618 0.22173052 0.23190802 0
0.038423568 0.21382596 0.16428562 0
0.043546826 0.213367 0.17112298 0
0.17485091 0.21871562 0.14471537 0
0.22655204 0.22058965 0.18542197 0
0.28963017 0.22493078 0.24218336 0
0.29717144 0.22621213 0.24707052 0
0.30639073 0.22626962 0.25597692 0
0.21452624 0.22325502 0.17098878 0
0.23125657 0.22320776 0.18877454 0
0.24198148 0.22422881 0.19755466 0
0.060923152 0.21979438 0.20433038 0
0.038832054 0.21914066 0.16727389 0
0.21760175 0.22683592 0.17102139 0
0.24198684 0.2280436 0.19369447 0
0.039398283 0.22140257 0.16851382 0
0.06006854 0.22307454 0.19974105 0
0.12962542 0.22526105 0.14149944 0
0.25622407 0.2301795 0.20219281 0
0.053048767 0.22500591 0.18475458 0
0.054132104 0.22368769 0.18649644 0
0.16499254 0.2278149 0.12940983 0
-0.0076108351 0.22447105 0.18769266 0
0.040639728 0.22487296 0.17072131 0
0.25383657 0.23465998 0.19447424 0
0.26463565 0.23496644 0.20349419 0
0.033265665 0.22794344 0.16808955 0
0.060557753 0.22823764 0.19836731 0
0.264281 0.23672543 0.20215021 0
0.28564554 0.23843713 0.2201823 0
-0.01459422 0.22799473 0.18387151 0
0.057828106 0.22995432 0.19526029 0
0.18321693 0.23504661 0.132718 0
0.20411688 0.23587896 0.15144876 0
0.20229983 0.23492445 0.15018156 0
0.21422932 0.23658444 0.16024823 0
0.25793234 0.23892282 0.1960457 0
0.27350491 0.2406611 0.20970416 0
-0.010238998 0.23042153 0.19090554 0
0.1896725 0.23559938 0.13920735 0
0.21325052 0.23793672 0.15892923 0
0.24409336 0.23986818 0.18465637 0
0.26550683 0.24162669 0.20173973 0
0.05842609 0.23440941 0.19593418 0
0.059833497 0.23544584 0.19731744 0
0.1740339 0.23668258 0.12426071 0
0.22224015 0.24073388 0.16532533 0
0.2252894 0.24130826 0.16848217 0
0.2457369 0.24149169 0.18534383 0
0.28449261 0.24484496 0.21713708 0
0.06109944 0.23635794 0.20060079 0
0.20107338 0.24198215 0.14743394 0
0.22215897 0.24252839 0.16555779 0
0.26086625 0.24400119 0.19726223 0
0.31705046 0.2477579 0.24371809 0
-0.013459936 0.23518236 0.18807578 0
0.061152011 0.2397161 0.19800913 0
0.1604244 0.23995118 0.11219276 0
0.198183 0.24225844 0.14482036 0
0.27137586 0.24811558 0.20571984 0
0.23044702 0.24736358 0.17173423 0
0.28455746 0.25037366 0.21537676 0
0.057224855 0.24304976 0.19255432 0
0.17118151 0.2443295 0.12021854 0
0.18900722 0.24678682 0.13521683 0
0.20802301 0.24703954 0.15247262 0
0.21781784 0.24836119 0.16037998 0
0.21938372 0.24891357 0.16189387 0
0.047679327 0.24405824 0.18225005 0
0.18102089 0.24810027 0.12800515 0
0.20577615 0.24975394 0.14981714 0
0.20722696 0.24844126 0.15096971 0
0.23225015 0.25050956 0.17274776 0
0.29413271 0.25505584 0.22233091 0
0.055791073 0.24612947 0.18694727 0
0.15800776 0.24888296 0.10823073 0
0.16043426 0.24835373 0.11046091 0
0.24704129 0.25424612 0.18331535 0
0.25414562 0.25359434 0.18955255 0
0.25736579 0.25518751 0.19193146 0
0.057366766 0.24829392 0.19086112 0
0.15790063 0.25059754 0.1078819 0
0.17415717 0.25230545 0.12056949 0
0.18861848 0.25393677 0.13335931 0
0.2383396 0.25663429 0.17653723 0
0.25241956 0.25819284 0.18714471 0
0.30363226 0.26075393 0.22912736 0
0.15267777 0.25425071 0.10337251 0
0.15951385 0.25382239 0.10914862 0
0.19299641 0.25686461 0.13690479 0
0.2047832 0.25787061 0.14732982 0
0.2766785 0.26145351 0.2076309 0
-0.013251491 0.25214851 0.18973769 0
0.057524264 0.25531805 0.18777055 0
0.19173223 0.25808662 0.13556214 0
0.21635869 0.25988096 0.15728237 0
0.22556758 0.26035219 0.16420414 0
0.30838674 0.26612979 0.23242319 0
0.05879876 0.25567842 0.18930523 0
0.21299922 0.26142436 0.15362594 0
0.27058658 0.26469016 0.20145065 0
0.2749196 0.2663427 0.20524453 0
0.2793327 0.26655537 0.20891672 0
0.30412087 0.26739621 0.2284144 0
0.31886488 0.26871979 0.24010859 0
0.14883706 0.2582044 0.09967117 0
0.16586371 0.25944406 0.11364802 0
0.19332254 0.261235 0.13728356 0
0.25789571 0.26704812 0.19059443 0
0.2589668 0.26759797 0.19168365 0
0.28887683 0.27127379 0.21535391 0
-0.013426162 0.25896508 0.18993251 0
0.21453643 0.26832056 0.15472029 0
0.25892612 0.26995009 0.19126423 0
0.28947613 0.27318287 0.21557568 0
0.29318169 0.27314895 0.21914767 0
-0.011813004 0.26071435 0.19015443 0
0.056593277 0.26498759 0.18296982 0
0.24547389 0.27097183 0.179057 0
0.29374927 0.27524745 0.21902153 0
0.33007443 0.27850306 0.24928457 0
0.21108246 0.2702297 0.15057234 0
0.23351803 0.27254826 0.1692113 0
0.25554663 0.27372062 0.18763199 0
0.25960705 0.27411199 0.19139819 0
0.30615684 0.27809227 0.22860053 0
0.062189236 0.26878297 0.18738925 0
0.16146292 0.26902652 0.10881124 0
0.25309032 0.27583289 0.18510816 0
0.31935629 0.28152758 0.23919694 0
0.18592662 0.27334112 0.12878799 0
0.18886161 0.27361196 0.13098073 0
0.19821024 0.27345252 0.13878825 0
0.20954213 0.27539635 0.14857334 0
0.25205132 0.27708679 0.18372132 0
0.32493141 0.28351867 0.24397591 0
0.16141354 0.2735225 0.10899649 0
0.17084853 0.2742281 0.11561878 0
0.19839099 0.27552748 0.13865766 0
0.20282379 0.27670133 0.14245567 0
0.21514404 0.27817285 0.15253408 0
0.31385559 0.28520578 0.23418681 0
0.15769286 0.27422202 0.10488848 0
0.24085885 0.28142852 0.17455864 0
0.27363417 0.28262424 0.2012895 0
0.27676961 0.28476524 0.20366576 0
0.28307876 0.2840181 0.20873244 0
0.32628959 0.28684253 0.24517225 0
0.33325708 0.28730339 0.25082365 0
0.33993989 0.28831053 0.25749019 0
0.33227003 0.29070348 0.2497789 0
0.3364374 0.29094249 0.25374615 0
0.2086719 0.28326184 0.14724058 0
0.21732876 0.2842645 0.15387084 0
0.31577104 0.29004151 0.23519678 0
0.32704669 0.29197592 0.24438138 0
0.32863069 0.29215485 0.24610549 0
0.19867498 0.28436774 0.13853174 0
0.21522295 0.28429025 0.15148598 0
0.27202582 0.29002023 0.19864707 0
0.29792175 0.29081875 0.21995041 0
0.17216836 0.28471524 0.11648753 0
0.25654772 0.28933573 0.18570125 0
0.19280267 0.28735495 0.13258514 0
0.22704217 0.28980708 0.16187246 0
0.23808345 0.29128748 0.17063195 0
0.27238172 0.29300135 0.1986023 0
0.32378477 0.29760438 0.2409215 0
0.33991444 0.29895484 0.25577056 0
0.20612034 0.29058653 0.14378484 0
0.29177088 0.29765803 0.21507816 0
0.15020008 0.28856325 0.097244292 0
0.17698748 0.29098737 0.12048323 0
0.33157271 0.30278689 0.24697414 0
0.33378282 0.30266315 0.24912864 0
-0.017954584 0.28615868 0.17856309 0
-0.014211945 0.28676456 0.1852549 0
0.17249815 0.29147023 0.1160873 0
0.23022047 0.29634416 0.16407575 0
0.26051402 0.29777491 0.18819074 0
0.26862365 0.29842395 0.19549206 0
0.2535021 0.29956454 0.18267566 0
0.34135008 0.30733693 0.25542644 0
0.16877463 0.29458332 0.11220317 0
0.22537625 0.3000291 0.15979685 0
0.24194026 0.30103934 0.17198908 0
0.26403198 0.30370241 0.19051792 0
0.2828449 0.30335885 0.20674217 0
0.3180345 0.305839 0.2348209 0
0.050442144 0.29570311 0.16579118 0
0.19658026 0.29892379 0.13589472 0
0.28923538 0.30637223 0.21146555 0
0.3429763 0.3103174 0.25676057 0
0.18079501 0.2998029 0.12225071 0
0.33470106 0.31155241 0.2493279 0
-0.018203456 0.29652947 0.17694317 0
-0.016876206 0.29659075 0.18143342 0
0.20058799 0.30290514 0.13905583 0
0.25014859 0.30788708 0.17856364 0
0.25177857 0.3084777 0.17981373 0
0.25563729 0.3085686 0.18347956 0
0.28629431 0.30949944 0.20923057 0
0.33494365 0.31369609 0.24917032 0
0.1402247 0.30179578 0.089164987 0
0.21233365 0.30717915 0.14820565 0
-0.012599438 0.30176061 0.18225357 0
0.027513787 0.30163312 0.15570635 0
0.21560213 0.3091591 0.15044074 0
0.248936 0.31132299 0.17752166 0
0.28803343 0.31543922 0.21014619 0
0.29255494 0.31527084 0.21404985 0
0.30889192 0.31536657 0.22637579 0
0.32105771 0.31711185 0.23660886 0
0.34159568 0.31890959 0.25393766 0
0.20560038 0.30993283 0.14236006 0
0.25567347 0.31367546 0.18311521 0
0.26590869 0.31486309 0.19164258 0
0.27323553 0.31572062 0.19738534 0
0.31049418 0.31824338 0.2276648 0
0.33784088 0.32050204 0.24987833 0
0.34172374 0.3210448 0.25427714 0
0.050216019 0.30696851 0.15573896 0
0.20330593 0.3121233 0.1401653 0
0.21601629 0.3134262 0.15088838 0
0.24395168 0.31520391 0.17274773 0
0.25753322 0.31659561 0.18418367 0
0.31331903 0.31957453 0.22981983 0
0.13467295 0.30886513 0.083418295 0
0.27220187 0.31945956 0.19658691 0
0.28687274 0.3197881 0.20895901 0
0.29058799 0.3200621 0.21150789 0
0.29782602 0.32032174 0.21780123 0
0.29917786 0.32109815 0.21932858 0
0.31469396 0.3232826 0.23035657 0
0.31613278 0.32246017 0.23172422 0
0.33765814 0.32543325 0.24958399 0
0.1446282 0.31016743 0.091228262 0
0.19247392 0.31408602 0.13056135 0
0.26697716 0.32139969 0.19096217 0
0.34270117 0.32743311 0.25391954 0
0.11708337 0.31198829 0.07320755 0
0.17180432 0.31496912 0.11345693 0
0.17327766 0.31570446 0.11452547 0
0.20538771 0.317388 0.14110613 0
0.21146894 0.31766403 0.14621638 0
0.24339828 0.32060891 0.17178665 0
0.25573045 0.32110566 0.18188806 0
0.31939217 0.32620782 0.23437932 0
0.32286021 0.32760584 0.23665728 0
0.32769302 0.32830477 0.24037279 0
0.26453415 0.32405919 0.1887708 0
0.064375103 0.30999565 0.024306547 0
0.077501893 0.31095862 0.03718704 0
0.16327083 0.3182568 0.10473158 0
0.19272801 0.32168162 0.12927143 0
0.21481302 0.32190937 0.14747755 0
0.22541416 0.32380372 0.1560933 0
0.25490254 0.32485759 0.18028672 0
-0.02660187 0.31351769 0.13680793 0
0.025153562 0.31099218 -0.0086511243 0
0.077683851 0.31489903 0.035296541 0
0.23478583 0.32783651 0.16331831 0
0.20195663 0.3282479 0.13620883 0
0.34112996 0.33911151 0.25084293 0
0.013020329 0.31308824 -0.018637246 0
0.15173233 0.32571733 0.09497916 0
0.27665007 0.3355065 0.19812344 0
-0.004711885 0.31507552 -0.033029061 0
0.08003433 0.32140994 0.036443699 0
0.086559162 0.32254922 0.041698791 0
0.18258189 0.33041805 0.12020105 0
0.24210173 0.3344056 0.16874337 0
0.2560305 0.33553171 0.18045294 0
0.0022227094 0.31747204 -0.028039359 0
0.045621306 0.32002908 0.0077489023 0
0.097938463 0.32519704 0.05071171 0
0.17164096 0.33035493 0.11090178 0
0.25065836 0.33804387 0.17579699 0
0.2742317 0.33985734 0.19540522 0
0.31680289 0.34223008 0.23028134 0
0.00096277893 0.31755584 -0.028773686 0
0.27282619 0.34087157 0.1942631 0
0.078568444 0.32676327 0.0348715 0
0.085410595 0.32788998 0.040613215 0
0.24243864 0.34040028 0.16861783 0
0.26179248 0.34135455 0.18517721 0
0.33871999 0.34903824 0.2486427 0
0.34117952 0.34821528 0.25052044 0
0.34430206 0.34817886 0.25274244 0
0.26746014 0.34533805 0.18978187 0
0.079277545 0.3313632 0.035581894 0
0.24813569 0.34466988 0.1731524 0
0.25929281 0.34553552 0.18283778 0
0.26196915 0.34537727 0.18529747 0
-0.022818033 0.32469296 -0.048288874 0
0.07317473 0.33289111 0.030141976 0
0.22139913 0.34396124 0.15147986 0
0.042386696 0.33094656 0.0046085403 0
0.050308272 0.33136976 0.011221275 0
0.055770412 0.33165085 0.01564311 0
0.089769423 0.33491063 0.044099219 0
0.13984196 0.34041083 0.083938204 0
0.16892096 0.34305835 0.10881286 0
0.25521067 0.3490991 0.17904097 0
0.26640135 0.35079342 0.18840885 0
0.27888951 0.35128224 0.19850098 0
0.33903116 0.35691035 0.24779958 0
-0.022431489 0.32732028 -0.047721107 0
0.12175725 0.34029937 0.06995286 0
0.27448195 0.35243601 0.19502115 0
0.19133317 0.34852564 0.12675127 0
0.19265562 0.34764642 0.12776425 0
0.21892166 0.35140491 0.1494748 0
0.26055679 0.35310459 0.18339029 0
0.28547412 0.35670638 0.20400459 0
0.29112127 0.35587472 0.20838457 0
0.056971036 0.33882892 0.01651345 0
0.11571567 0.34387469 0.064570367 0
0.14807934 0.34588218 0.090715528 0
0.31787232 0.36070329 0.23042718 0
-0.012306578 0.33362055 -0.040404074 0
0.030463576 0.33861697 -0.0052710338 0
0.1704002 0.34948283 0.10961767 0
0.24306273 0.35718602 0.16877815 0
0.26105335 0.35730571 0.18366563 0
0.30120975 0.36082858 0.21623859 0
-0.0027798899 0.33623916 -0.032385204 0
0.087059051 0.34463 0.040581752 0
0.21586472 0.35543501 0.14664215 0
0.22779539 0.35662287 0.15621172 0
0.24894288 0.35868597 0.17333449 0
0.24306151 0.36107528 0.16858275 0
0.2488873 0.36088461 0.1733602 0
0.21096197 0.35994899 0.14248858 0
0.27129981 0.36436379 0.19180307 0
0.29722837 0.36639351 0.21287239 0
0.16041297 0.35660762 0.100582 0
0.20361567 0.36141181 0.13663644 0
0.27131972 0.36640304 0.19174613 0
0.29468206 0.36798292 0.2107636 0
0.29736498 0.37016082 0.2130366 0
0.31563789 0.37130481 0.22810918 0
0.020961195 0.34684879 -0.012824396 0
0.17052723 0.36030829 0.10902767 0
0.25887027 0.36853486 0.18114424 0
0.25769135 0.36678195 0.1803095 0
0.29203779 0.37066323 0.20869087 0
0.31583118 0.37346244 0.22805795 0
0.23476306 0.36775446 0.16161522 0
0.25599936 0.37044829 0.17880127 0
0.26711151 0.37007087 0.18810779 0
0.32852811 0.37574714 0.23858799 0
0.33808982 0.37791479 0.24636006 0
-0.018500034 0.34689748 -0.04568604 0
0.092001572 0.35652739 0.044870313 0
0.10147308 0.35692543 0.052631482 0
0.23913804 0.37080598 0.16479893 0
0.31613511 0.37761492 0.22817728 0
0.3218168 0.37748647 0.23282856 0
0.33454061 0.37893659 0.24337962 0
0.34402582 0.37994009 0.25117165 0
0.1563327 0.36395472 0.097111911 0
0.19600853 0.36794376 0.12968776 0
0.14476533 0.36442018 0.087704502 0
0.18747059 0.36834443 0.12232262 0
0.1921317 0.36882895 0.12619998 0
0.19753867 0.371086 0.13104174 0
0.20022294 0.37077945 0.13325927 0
0.21151918 0.37222713 0.14229675 0
0.32205948 0.38171268 0.23270494 0
0.14907834 0.36714786 0.091058105 0
0.19090131 0.37196624 0.124931 0
0.25780323 0.37847549 0.18007022 0
0.31201336 0.38306737 0.22470903 0
0.33103096 0.38517803 0.24014506 0
0.096444651 0.36530012 0.048800226 0
0.13003841 0.3673209 0.075926282 0
0.14205652 0.36878997 0.085651122 0
0.19777918 0.37461853 0.13081746 0
0.21728078 0.37606317 0.14676745 0
0.25328836 0.37890387 0.17631087 0
0.27879506 0.3818363 0.19747822 0
0.33694294 0.38657439 0.24485774 0
0.21742526 0.37812269 0.14680728 0
0.31505486 0.38751471 0.2266776 0
0.32891622 0.38785756 0.23834467 0
0.079430714 0.36749691 0.034971036 0
0.20529935 0.37771416 0.13675353 0
0.23684809 0.38137072 0.16247766 0
0.27589536 0.38596344 0.19528162 0
0.33184966 0.38978231 0.24049605 0
0.14805584 0.37623602 0.090158351 0
0.18461677 0.37920886 0.11960338 0
0.18762568 0.37900114 0.12204145 0
0.18902975 0.37993699 0.12317134 0
0.30918255 0.39124155 0.22212842 0
0.077158958 0.36980861 0.032435104 0
0.10163006 0.37384546 0.052768659 0
0.30913863 0.39283842 0.22184677 0
0.21623009 0.38571543 0.14561811 0
0.040421844 0.37127322 0.0022523818 0
0.14161032 0.3803454 0.084733956 0
0.14439902 0.38026899 0.086908624 0
0.26753879 0.39149916 0.18807274 0
0.34049824 0.39906174 0.24711047 0
0.14623594 0.38336128 0.08838103 0
0.28613532 0.3971948 0.20307896 0
0.29255089 0.39772397 0.20761168 0
0.33247039 0.40018713 0.2411214 0
0.33891898 0.40216327 0.24602781 0
0.024606556 0.37369055 -0.010665031 0
0.027325213 0.37370849 -0.0082770586 0
0.058909371 0.37583899 0.017539851 0
0.26252136 0.39526671 0.18265775 0
0.28338066 0.39750051 0.20070703 0
0.32973725 0.40272093 0.23883533 0
0.20588368 0.39174104 0.13674748 0
0.29425967 0.40060562 0.20828769 0
0.022580683 0.3765015 -0.012279311 0
0.10300659 0.38415021 0.053762767 0
0.19622141 0.39286751 0.12882361 0
0.20442966 0.39488924 0.13565142 0
0.29384872 0.4027375 0.20884696 0
0.30832109 0.40527141 0.22070695 0
0.34293813 0.40762955 0.24978556 0
0.048273906 0.38165885 0.0087374933 0
0.092388287 0.38625854 0.044897184 0
0.18636723 0.3951816 0.11996094 0
0.22957882 0.39921224 0.15625015 0
0.26574352 0.40232372 0.18555848 0
0.27059785 0.40264434 0.1903192 0
0.34296143 0.4097144 0.24950325 0
0.092405438 0.38826513 0.044918854 0
0.10391891 0.38771713 0.05435415 0
0.205437 0.39826369 0.13661751 0
0.23244449 0.40167558 0.15815273 0
0.23944622 0.40085846 0.16440086 0
0.26121575 0.40299505 0.18196976 0
0.3233799 0.41017634 0.23330697 0
0.33036283 0.41115648 0.23846498 0
-0.0051671863 0.38032037 -0.035878588 0
0.21931395 0.40245509 0.14777827 0
0.23667488 0.40254617 0.16187941 0
0.24328709 0.40324008 0.16753446 0
0.24767715 0.4047358 0.1707508 0
0.27085313 0.40684992 0.19023061 0
0.29695663 0.40953147 0.21119228 0
0.3195819 0.41245186 0.23097989 0
0.17725326 0.39999336 0.11304024 0
0.23404542 0.40503281 0.16129084 0
0.23605913 0.40447533 0.1618157 0
0.24985167 0.40738022 0.17360634 0
0.25581107 0.40627223 0.17835835 0
0.26793534 0.40900481 0.18806455 0
0.26930341 0.40789205 0.18922359 0
0.051590838 0.38966769 0.010722602 0
0.16382179 0.39957464 0.10236394 0
0.26622736 0.40938151 0.18688709 0
0.29457971 0.41321641 0.20825884 0
0.31166336 0.41501105 0.2217617 0
0.028266512 0.38945842 -0.0078255869 0
0.080294237 0.39473867 0.035034429 0
0.11948177 0.39800894 0.066332966 0
0.18915701 0.40488029 0.12407296 0
0.19652072 0.40568072 0.12858167 0
0.25124478 0.41123778 0.17530406 0
0.069214955 0.39461046 0.025389049 0
0.099586636 0.39709634 0.051124435 0
0.12309061 0.40026498 0.068929553 0
0.17527601 0.40418828 0.11064912 0
-0.0069441684 0.38922167 -0.036810059 0
0.0027213842 0.39036542 -0.029388191 0
0.0080376118 0.38996559 -0.024940612 0
0.077825397 0.39715481 0.032851484 0
0.099599242 0.39916158 0.051245991 0
0.33484504 0.4216513 0.22341102 0
0.33761755 0.42220539 0.22373828 0
0.046761461 0.3971166 0.0074607232 0
0.13211662 0.40447801 0.06868425 0
0.31227639 0.42107075 0.20310725 0
0.35247815 0.42462343 0.23587862 0
0.19203234 0.41164792 0.10947747 0
0.32001039 0.42463148 0.20919353 0
0.35092169 0.42625147 0.23470402 0
-0.020315234 0.39405316 -0.047039177 0
-0.01589743 0.39444005 -0.045466326 0
-0.0020118132 0.39577907 -0.035646018 0
0.055244483 0.40052164 0.013201801 0
0.1016272 0.40356517 0.034895167 0
0.20619902 0.41448647 0.11563991 0
0.26093641 0.42042989 0.15995263 0
0.28555202 0.42223364 0.18046281 0
0.29272431 0.42235637 0.18611152 0
0.29548797 0.4241789 0.18846402 0
0.31266034 0.42521328 0.20287691 0
0.16770214 0.41287315 0.083521381 0
0.3016946 0.42677093 0.19356968 0
0.32756937 0.42928118 0.21452145 0
0.33908892 0.42967945 0.22463462 0
0.020283565 0.3992582 -0.034194503 0
0.11466035 0.40849638 0.039809942 0
0.13105245 0.41111046 0.053649623 0
0.1983552 0.41859907 0.10839745 0
0.19981161 0.41744232 0.10952399 0
0.3080667 0.42797267 0.1984376 0
0.35844028 0.4344945 0.2405898 0
0.36657414 0.43469369 0.24754769 0
0.044621706 0.40402597 -0.017003944 0
0.098822027 0.40966308 0.027200572 0
0.11786014 0.41117263 0.042393479 0
0.16012119 0.41521752 0.077640064 0
0.18557207 0.41909778 0.098070726 0
0.18717515 0.41801268 0.099612564 0
0.20064151 0.42052805 0.11077345 0
0.20242956 0.41939461 0.11167093 0
0.31052607 0.43213421 0.20062408 0
0.32729167 0.43355429 0.21443209 0
0.2344878 0.42587858 0.13819495 0
0.34684896 0.4359448 0.23071569 0
0.35853821 0.43883657 0.2404577 0
-0.0069777444 0.40292716 -0.060196642 0
0.22058052 0.42650545 0.12671322 0
0.23163047 0.42776978 0.13611099 0
0.26325259 0.42945135 0.16203091 0
0.32852474 0.43651325 0.21594381 0
-0.023840189 0.40307993 -0.074331373 0
0.2165007 0.42771912 0.12329516 0
0.28131497 0.43384647 0.17688593 0
0.29121909 0.4357211 0.1850289 0
0.35751686 0.44281673 0.23950864 0
0.087874204 0.41616553 0.017875204 0
0.35093468 0.44403547 0.23350134 0
0.35484746 0.44288427 0.23723449 0
0.068135902 0.41628307 0.0013277554 0
0.086441875 0.41759902 0.016659897 0
0.087941974 0.4185884 0.017663108 0
0.18733498 0.42823881 0.099070042 0
0.18865746 0.42933232 0.10049669 0
0.22909221 0.43217933 0.13395649 0
0.23180389 0.43218267 0.13625485 0
0.27259675 0.43664712 0.16956736 0
0.27657655 0.43759185 0.17245173 0
0.29245931 0.43855894 0.18568726 0
0.056611113 0.41586196 -0.0075907535 0
0.094682977 0.42089468 0.023210511 0
0.10492048 0.42119068 0.031159611 0
0.17641655 0.42880541 0.090481065 0
0.18862379 0.43129861 0.10025764 0
0.22888872 0.43449062 0.13360676 0
0.22903508 0.43412495 0.13397378 0
0.28137389 0.44025183 0.17685828 0
0.33041048 0.44560695 0.21741439 0
0.35083014 0.44832659 0.23368236 0
0.015861906 0.41362339 -0.042380374 0
0.06239301 0.41998917 -0.0029818541 0
0.20144209 0.43305939 0.1110239 0
0.25093576 0.43911856 0.1516816 0
0.30349916 0.44538516 0.19495827 0
0.30665109 0.44541806 0.19733158 0
0.36014658 0.450643 0.24132867 0
0.36880583 0.45054477 0.24897385 0
0.016839303 0.41645116 -0.04079717 0
0.084706992 0.42369801 0.014317036 0
0.088577509 0.42419869 0.017764384 0
